-0.617226 0.093760 2.137000 26 24 24
-0.457178 0.100385 2.288000 29 29 23
-0.276230 0.109380 2.493000 58 64 57
-0.057611 0.116005 2.644000 70 72 77
0.184059 0.120129 2.738000 31 32 29
0.449806 0.126315 2.879000 45 42 39
0.674437 0.120655 2.750000 96 94 94
0.338795 0.039794 0.907000 99 98 95
0.307996 0.028255 0.644000 125 125 119
0.335663 0.025842 0.589000 31 31 25
0.379526 0.025272 0.576000 149 145 126
0.469331 0.027246 0.621000 128 134 133
-0.977108 0.082896 1.783000 176 176 177
-0.752341 0.077085 1.658000 46 49 41
-0.662024 0.084384 1.815000 22 21 18
-0.597525 0.100750 2.167000 24 23 20
-0.427227 0.106375 2.288000 27 27 21
-0.247603 0.117813 2.534000 63 69 69
-0.023096 0.123438 2.655000 70 73 76
0.223915 0.129622 2.788000 26 27 24
0.487492 0.133852 2.879000 89 88 92
0.701135 0.126181 2.714000 94 94 94
0.303307 0.034823 0.749000 107 108 100
0.313839 0.029383 0.632000 124 125 117
0.345500 0.027431 0.590000 33 32 24
0.433740 0.029662 0.638000 175 170 160
0.476123 0.028500 0.613000 157 154 151
-0.867287 0.081622 1.662000 46 39 34
-0.687751 0.078037 1.589000 23 25 19
-0.657015 0.093851 1.911000 24 25 22
-0.568191 0.109517 2.230000 25 26 23
-0.388093 0.114968 2.341000 50 51 48
-0.196987 0.126018 2.566000 65 72 76
0.032511 0.130389 2.655000 62 66 71
0.276030 0.133876 2.726000 26 25 22
0.535233 0.138148 2.813000 96 94 95
0.292433 0.045084 0.918000 95 96 93
0.311957 0.035753 0.728000 126 127 124
0.320866 0.030449 0.620000 126 124 118
0.358464 0.029024 0.591000 114 115 100
0.455691 0.031234 0.636000 144 144 144
0.487333 0.029712 0.605000 167 176 174
-0.835201 0.087629 1.694000 33 33 27
-0.692089 0.088611 1.713000 22 24 18
-0.657108 0.107906 2.086000 24 25 22
-0.511428 0.117062 2.263000 25 24 21
-0.326841 0.123425 2.386000 58 62 62
-0.123090 0.132736 2.566000 71 75 80
0.111392 0.140392 2.714000 37 37 37
0.356095 0.141633 2.738000 38 35 32
0.605289 0.142927 2.763000 89 89 90
0.311576 0.046401 0.897000 97 96 93
0.305553 0.034762 0.672000 125 127 121
0.322961 0.030727 0.594000 68 65 62
0.372671 0.030468 0.589000 150 141 123
0.461468 0.032486 0.628000 130 135 131
0.497596 0.031244 0.604000 162 173 171
-0.795473 0.091574 1.685000 31 33 27
-0.683027 0.096900 1.783000 24 25 22
-0.615477 0.113748 2.093000 28 26 20
-0.474489 0.125758 2.314000 30 31 28
-0.284642 0.133313 2.453000 61 65 65
-0.069942 0.140650 2.588000 80 78 84
0.168235 0.147497 2.714000 34 31 28
0.419027 0.150812 2.775000 43 37 35
0.645637 0.146193 2.690000 90 90 91
0.336992 0.049727 0.915000 103 101 101
0.307261 0.035108 0.646000 130 130 124
0.332419 0.031847 0.586000 34 35 27
0.374080 0.030978 0.570000 168 156 132
0.477728 0.033315 0.613000 147 151 151
-0.871638 0.094676 1.662000 45 40 35
-0.697137 0.091201 1.601000 23 25 19
-0.647815 0.106524 1.870000 26 26 20
-0.557812 0.123443 2.167000 24 24 24
-0.386813 0.130848 2.297000 55 63 56
-0.202831 0.145545 2.555000 67 74 78
0.025127 0.148678 2.610000 64 72 79
0.260804 0.150615 2.644000 29 30 27
0.511543 0.155286 2.726000 86 86 87
0.290662 0.052408 0.920000 98 99 96
0.315764 0.042496 0.746000 130 131 128
0.316595 0.035204 0.618000 134 132 126
0.354768 0.033609 0.590000 78 78 59
0.454239 0.036514 0.641000 152 153 150
0.484176 0.034578 0.607000 167 176 174
-0.843878 0.099861 1.676000 35 33 27
-0.696350 0.100099 1.680000 25 26 18
-0.676675 0.123873 2.079000 24 25 22
-0.531343 0.133883 2.247000 26 27 24
-0.346519 0.140020 2.350000 58 63 59
-0.148734 0.151638 2.545000 72 74 79
0.080831 0.157537 2.644000 62 69 73
0.317497 0.158192 2.655000 34 33 30
0.561127 0.160278 2.690000 92 90 91
0.305214 0.053982 0.906000 101 101 101
0.307425 0.040993 0.688000 135 133 133
0.319903 0.035571 0.597000 121 121 115
0.364921 0.034796 0.584000 124 119 109
0.464915 0.037299 0.626000 128 128 129
0.503172 0.036048 0.605000 160 169 167
-0.804157 0.105368 1.694000 32 32 26
-0.683838 0.110282 1.773000 24 26 20
-0.616803 0.129316 2.079000 25 24 21
-0.480547 0.143933 2.314000 50 58 51
-0.288810 0.151397 2.434000 63 67 67
-0.074820 0.156995 2.524000 73 75 80
0.156973 0.164459 2.644000 64 68 73
0.399149 0.167320 2.690000 71 78 74
0.635746 0.166574 2.678000 92 90 91
0.334231 0.056852 0.914000 107 106 103
0.306516 0.040306 0.648000 137 137 131
0.328226 0.036325 0.584000 39 35 28
0.369319 0.035143 0.565000 139 120 104
0.476067 0.038254 0.615000 130 125 120
-0.953768 0.115572 1.783000 62 55 50
-0.731293 0.106303 1.640000 26 28 22
-0.639917 0.116220 1.793000 24 24 24
-0.556931 0.134759 2.079000 24 25 22
-0.412477 0.149472 2.306000 56 62 61
-0.224016 0.161594 2.493000 66 70 75
-0.002133 0.163603 2.524000 74 77 85
0.225269 0.165612 2.555000 55 65 60
0.470416 0.172094 2.655000 84 84 85
0.691839 0.168464 2.599000 93 91 92
0.321125 0.051401 0.793000 131 131 131
0.311001 0.040382 0.623000 135 135 129
0.346457 0.038178 0.589000 35 35 24
0.454975 0.041160 0.635000 129 133 132
0.487333 0.039215 0.605000 170 181 179
-0.851532 0.115857 1.718000 35 34 31
-0.690881 0.114575 1.699000 25 27 21
-0.651453 0.138313 2.051000 25 25 25
-0.513695 0.151531 2.247000 52 59 55
-0.334483 0.161579 2.396000 63 67 66
-0.125609 0.167446 2.483000 71 75 80
0.098600 0.173043 2.566000 73 75 80
0.332614 0.176010 2.610000 70 76 75
0.574679 0.179045 2.655000 88 88 88
0.308590 0.060828 0.902000 103 101 101
0.307845 0.046734 0.693000 135 134 131
0.316741 0.040058 0.594000 126 124 118
0.357169 0.038709 0.574000 136 132 120
0.470956 0.041878 0.621000 142 148 147
-1.000915 0.129812 1.853000 71 66 61
-0.716977 0.113979 1.627000 26 28 22
-0.634397 0.126379 1.804000 26 24 24
-0.551561 0.147115 2.100000 49 56 52
-0.403354 0.162738 2.323000 59 65 65
-0.208424 0.172545 2.463000 68 71 74
0.010903 0.173947 2.483000 72 75 83
0.234818 0.176118 2.514000 71 74 77
0.470089 0.180532 2.577000 88 85 89
0.693504 0.178990 2.555000 92 90 91
0.322406 0.055063 0.786000 133 131 132
0.309004 0.043364 0.619000 135 135 129
0.345280 0.041122 0.587000 36 35 27
0.457263 0.044065 0.629000 127 131 131
0.490404 0.042103 0.601000 182 191 189
-0.833868 0.125579 1.728000 32 34 28
-0.680054 0.125579 1.728000 22 27 23
-0.624605 0.149052 2.051000 27 28 25
-0.495058 0.166930 2.297000 55 59 58
-0.301854 0.173398 2.386000 61 65 65
-0.091606 0.177540 2.443000 74 76 81
0.129510 0.182700 2.514000 71 74 82
0.360596 0.186479 2.566000 76 76 77
0.604154 0.191275 2.632000 90 90 91
0.321462 0.065769 0.905000 118 119 116
0.305150 0.049054 0.675000 137 135 135
0.315349 0.042150 0.580000 58 49 44
0.351791 0.040406 0.556000 98 84 74
0.471917 0.044912 0.618000 150 157 153
-1.068777 0.150432 1.998000 65 60 55
-0.735306 0.124155 1.649000 27 28 25
-0.638132 0.134620 1.788000 25 26 23
-0.564700 0.158714 2.108000 50 57 53
-0.413908 0.174223 2.314000 59 62 65
-0.217007 0.181828 2.415000 63 66 69
-0.002048 0.182505 2.424000 75 78 86
0.217158 0.185442 2.463000 69 76 80
0.447205 0.190035 2.524000 88 85 89
0.674536 0.190788 2.534000 89 89 89
0.345620 0.066407 0.882000 133 137 137
0.301387 0.046680 0.620000 137 136 133
0.337021 0.044121 0.586000 33 35 24
0.450165 0.047132 0.626000 126 130 130
0.486492 0.045325 0.602000 185 191 190
-0.820047 0.133848 1.718000 30 32 26
-0.672948 0.135016 1.733000 27 29 23
-0.624341 0.162518 2.086000 49 55 48
-0.483030 0.178957 2.297000 59 59 59
-0.286087 0.183788 2.359000 61 65 65
-0.077298 0.186670 2.396000 76 78 83
0.139212 0.191111 2.453000 74 77 85
0.367910 0.196643 2.524000 79 77 78
0.607605 0.201629 2.588000 92 90 91
0.327643 0.070819 0.909000 132 130 130
0.304698 0.052511 0.674000 135 135 136
0.313831 0.045187 0.580000 61 55 53
0.346555 0.042850 0.550000 103 94 83
0.464453 0.048382 0.621000 142 149 145
0.497133 0.046278 0.594000 198 209 207
-0.723010 0.131340 1.631000 26 28 22
-0.639120 0.145271 1.804000 23 25 19
-0.570853 0.173294 2.152000 53 59 58
-0.404853 0.184971 2.297000 61 65 65
-0.207370 0.191413 2.377000 62 67 70
0.004230 0.192138 2.386000 76 78 83
0.220065 0.195198 2.424000 72 76 81
0.444643 0.199144 2.473000 86 86 87
0.670149 0.200754 2.493000 90 88 88
0.338856 0.069173 0.859000 133 136 139
0.297264 0.048719 0.605000 137 136 133
0.337768 0.046867 0.582000 35 36 23
0.425732 0.048558 0.603000 123 127 126
0.482587 0.048880 0.607000 160 168 161
-0.850037 0.145670 1.752000 34 34 28
-0.678635 0.142428 1.713000 25 27 21
-0.642875 0.174023 2.093000 50 58 51
-0.491909 0.187492 2.255000 59 62 65
-0.299966 0.193146 2.323000 62 66 66
-0.094994 0.196888 2.368000 76 78 83
0.118088 0.200796 2.415000 71 76 79
0.345190 0.208112 2.503000 80 80 81
0.575025 0.210690 2.534000 87 87 87
0.319093 0.075246 0.905000 131 131 131
0.300793 0.054377 0.654000 135 133 133
0.316739 0.047975 0.577000 41 42 34
0.350237 0.045647 0.549000 89 78 67
0.468777 0.051217 0.616000 150 157 153
-1.108636 0.179502 2.093000 52 52 41
-0.711248 0.138422 1.614000 27 30 22
-0.638265 0.155660 1.815000 47 56 54
-0.573361 0.187221 2.183000 55 61 60
-0.394499 0.194854 2.272000 61 65 65
-0.198100 0.200772 2.341000 66 70 75
0.010319 0.201543 2.350000 77 79 84
0.222862 0.204631 2.386000 76 78 83
0.442179 0.207890 2.424000 84 84 85
0.663104 0.209519 2.443000 94 90 90
0.335149 0.072384 0.844000 134 138 138
0.309809 0.049828 0.581000 127 127 121
0.341613 0.047084 0.549000 131 129 117
0.461337 0.053087 0.619000 149 156 152
0.495578 0.050943 0.594000 197 203 202
-0.733792 0.144592 1.636000 29 31 25
-0.646768 0.158998 1.799000 52 58 57
-0.590506 0.192936 2.183000 55 61 61
-0.409258 0.199300 2.255000 57 63 63
-0.213990 0.204514 2.314000 64 67 70
-0.008076 0.206105 2.332000 76 78 83
0.201812 0.208491 2.359000 77 79 84
0.418253 0.211761 2.396000 79 83 83
0.641544 0.215120 2.434000 90 88 88
0.336694 0.076450 0.865000 138 138 139
0.306766 0.051349 0.581000 133 134 126
0.339356 0.048610 0.550000 134 131 121
0.455738 0.054620 0.618000 150 156 149
0.492566 0.052675 0.596000 196 202 201
-0.788714 0.152879 1.680000 30 32 26
-0.660858 0.158066 1.737000 45 53 46
-0.633896 0.197923 2.175000 57 61 61
-0.453046 0.203656 2.238000 58 62 62
-0.259506 0.208206 2.288000 64 67 70
-0.056479 0.210572 2.314000 76 77 85
0.151242 0.213029 2.341000 72 76 81
0.369453 0.218853 2.405000 84 83 87
0.592750 0.222311 2.443000 88 88 88
0.335151 0.082809 0.910000 130 129 126
0.298646 0.052780 0.580000 139 139 133
0.336384 0.050687 0.557000 129 131 113
0.417390 0.053599 0.589000 133 141 134
0.483379 0.055146 0.606000 189 198 196
-0.986370 0.183396 1.959000 38 38 32
-0.715429 0.162613 1.737000 40 43 35
-0.685115 0.198656 2.122000 54 60 59
-0.517743 0.207269 2.214000 57 61 61
-0.322986 0.208766 2.230000 62 65 68
-0.129176 0.216630 2.314000 70 73 76
0.077696 0.219158 2.341000 78 82 87
0.293897 0.225150 2.405000 77 81 81
0.515999 0.228707 2.443000 86 86 87
0.304514 0.085285 0.911000 126 126 126
0.286318 0.055141 0.589000 140 139 136
0.328395 0.053455 0.571000 36 33 23
0.373058 0.051770 0.553000 148 156 149
0.468171 0.057200 0.611000 153 159 158
-1.049706 0.189776 1.972000 62 58 46
-0.707723 0.154554 1.606000 29 29 23
-0.640023 0.175148 1.820000 54 60 59
-0.573361 0.210082 2.183000 56 62 61
-0.381650 0.211525 2.198000 59 62 65
-0.192261 0.218647 2.272000 68 70 75
0.010086 0.221052 2.297000 79 81 86
0.216978 0.223555 2.323000 76 79 82
0.431964 0.227885 2.368000 83 87 87
0.642747 0.227885 2.368000 98 96 96
0.268898 0.056586 0.588000 135 135 135
0.312497 0.055047 0.572000 39 39 39
0.337999 0.051197 0.532000 129 120 109
0.463285 0.058992 0.613000 156 160 159
-1.015469 0.183175 1.853000 178 178 178
-0.750293 0.162515 1.644000 28 34 27
-0.653183 0.175761 1.778000 54 61 57
-0.605425 0.215006 2.175000 55 61 60
-0.416177 0.217280 2.198000 59 63 63
-0.225442 0.222123 2.247000 65 67 72
-0.025803 0.225386 2.280000 74 81 85
0.178467 0.227066 2.297000 77 76 80
0.390266 0.231416 2.341000 80 84 84
0.605550 0.234085 2.368000 91 89 89
0.336243 0.081554 0.825000 134 132 132
0.303598 0.056841 0.575000 133 135 124
0.330717 0.052985 0.536000 139 133 121
0.440158 0.059213 0.599000 155 166 158
0.491005 0.058917 0.596000 196 202 201
-0.808591 0.171892 1.694000 33 33 27
-0.682267 0.178285 1.757000 55 60 56
-0.646489 0.219178 2.160000 56 60 59
-0.460530 0.222222 2.190000 62 66 66
-0.270442 0.226281 2.230000 61 64 67
-0.073298 0.230543 2.272000 72 76 81
0.130358 0.233080 2.297000 81 79 85
0.341235 0.237544 2.341000 82 82 83
0.555954 0.240284 2.368000 89 87 87
0.327410 0.092846 0.915000 128 128 129
0.292063 0.058448 0.576000 138 138 132
0.327836 0.055809 0.550000 110 107 90
0.411819 0.058752 0.579000 152 161 159
0.481764 0.061086 0.602000 189 196 192
-0.971265 0.200788 1.929000 43 41 35
-0.718351 0.185071 1.778000 57 62 58
-0.675379 0.223168 2.144000 55 62 58
-0.491541 0.226394 2.175000 56 62 61
-0.299033 0.227227 2.183000 64 67 70
-0.108171 0.234722 2.255000 71 75 80
0.093907 0.238157 2.288000 72 74 79
0.299910 0.240030 2.306000 86 84 85
0.516785 0.245547 2.359000 88 88 88
0.312695 0.095138 0.914000 131 131 132
0.290555 0.059955 0.576000 138 139 136
0.326396 0.057249 0.550000 56 51 41
0.391300 0.059227 0.569000 130 137 133
0.472240 0.063286 0.608000 189 196 187
-1.026204 0.207759 1.947000 51 48 38
-0.708934 0.176921 1.658000 74 74 75
-0.665631 0.209787 1.966000 58 62 61
-0.539045 0.230488 2.160000 58 62 62
-0.341961 0.227287 2.130000 58 62 62
-0.158944 0.237104 2.222000 73 76 79
0.039420 0.240625 2.255000 74 78 83
0.240996 0.241479 2.263000 81 80 84
0.455923 0.248842 2.332000 89 87 88
0.299123 0.100198 0.939000 119 123 123
0.278007 0.063064 0.591000 139 139 139
0.314390 0.059970 0.562000 36 37 29
0.331994 0.054634 0.512000 104 94 72
0.436634 0.062957 0.590000 164 173 172
0.497133 0.063384 0.594000 154 172 155
-0.721370 0.186728 1.708000 68 72 71
-0.677003 0.222040 2.031000 58 62 61
-0.523826 0.234394 2.144000 56 60 59
-0.329565 0.231989 2.122000 63 66 69
-0.146779 0.242047 2.214000 72 75 78
0.051046 0.245654 2.247000 79 87 89
0.251058 0.245654 2.247000 82 82 83
0.466327 0.253963 2.323000 91 87 87
0.303068 0.102329 0.936000 123 123 124
0.278477 0.064721 0.592000 140 140 140
0.313272 0.061222 0.560000 36 37 29
0.333291 0.056193 0.514000 103 93 71
0.433674 0.064065 0.586000 165 174 172
-0.994645 0.203177 1.815000 173 174 171
-0.729707 0.199595 1.783000 64 68 67
-0.672514 0.235081 2.100000 59 64 60
-0.494142 0.239223 2.137000 61 65 64
-0.303921 0.239223 2.137000 63 67 72
-0.117372 0.246947 2.206000 71 76 79
0.080459 0.251537 2.247000 79 84 87
0.278350 0.249634 2.230000 81 81 82
0.493100 0.258142 2.306000 89 87 88
0.310196 0.103884 0.928000 125 128 131
0.280626 0.066047 0.590000 141 139 139
0.313381 0.062129 0.555000 33 34 26
0.353911 0.059890 0.535000 106 95 75
0.443563 0.066159 0.591000 167 176 174
-0.761348 0.187881 1.640000 67 74 70
-0.670900 0.204836 1.788000 59 65 64
-0.601042 0.240579 2.100000 56 60 59
-0.418453 0.243100 2.122000 60 66 66
-0.231947 0.245620 2.144000 67 72 75
-0.042138 0.251806 2.198000 81 80 84
0.154630 0.253639 2.214000 82 80 86
0.359488 0.259253 2.263000 88 84 85
0.569353 0.263148 2.297000 116 116 117
0.264160 0.073778 0.644000 132 132 132
0.285542 0.065529 0.572000 134 133 130
0.320575 0.062436 0.545000 53 49 35
0.380032 0.064040 0.559000 128 126 127
0.462082 0.068851 0.601000 174 189 176
-0.729955 0.189596 1.618000 62 72 67
-0.657272 0.212681 1.815000 57 61 60
-0.569729 0.244437 2.086000 62 66 66
-0.386625 0.246077 2.100000 64 68 68
-0.202551 0.249592 2.130000 64 69 72
-0.013226 0.254866 2.175000 80 79 83
0.181040 0.255803 2.183000 82 81 85
0.387736 0.264240 2.255000 89 87 88
0.594984 0.267169 2.280000 120 124 124
0.269204 0.074526 0.636000 133 133 133
0.289443 0.066206 0.565000 134 132 126
0.315850 0.061285 0.523000 135 133 119
0.392371 0.065855 0.562000 161 172 164
0.475458 0.070776 0.604000 143 171 147
-0.707252 0.196947 1.644000 66 72 71
-0.652012 0.228933 1.911000 59 65 64
-0.524274 0.249059 2.079000 59 63 63
-0.340358 0.249898 2.086000 61 67 67
-0.157939 0.255169 2.130000 67 72 75
0.032104 0.258763 2.160000 81 85 90
0.224373 0.258763 2.160000 82 82 83
0.431686 0.268107 2.238000 90 88 88
0.303508 0.113209 0.945000 122 126 126
0.273195 0.073676 0.615000 134 132 132
0.298077 0.066967 0.559000 83 76 71
0.324502 0.061696 0.515000 132 130 118
0.409895 0.068285 0.570000 169 177 170
0.483260 0.071639 0.598000 186 199 186
-0.720973 0.217043 1.773000 66 75 73
-0.647323 0.249483 2.038000 59 65 64
-0.473688 0.253645 2.072000 61 61 62
-0.292184 0.256216 2.093000 63 67 72
-0.108460 0.262459 2.144000 72 75 78
0.083575 0.266254 2.175000 81 84 87
0.276159 0.265275 2.167000 84 81 85
0.484419 0.273966 2.238000 105 103 103
0.259566 0.080549 0.658000 130 130 130
0.279941 0.070879 0.579000 137 133 133
0.311442 0.066594 0.544000 33 33 27
0.361380 0.066349 0.542000 102 94 73
0.441367 0.071491 0.584000 141 167 134
-0.771711 0.206681 1.653000 66 75 74
-0.681626 0.225561 1.804000 63 69 69
-0.586611 0.253943 2.031000 59 63 63
-0.409821 0.256444 2.051000 62 66 65
-0.232685 0.262571 2.100000 69 71 76
-0.046716 0.268072 2.144000 80 83 86
0.144666 0.269072 2.152000 84 88 88
0.341065 0.272948 2.183000 89 86 90
0.542983 0.276824 2.214000 119 123 123
0.269218 0.080522 0.644000 135 134 131
0.284906 0.069894 0.559000 134 131 128
0.307515 0.063392 0.507000 131 128 118
0.386726 0.069519 0.556000 168 177 168
0.470739 0.075020 0.600000 190 201 193
-0.702797 0.206030 1.614000 66 75 73
-0.644004 0.237304 1.859000 55 61 61
-0.521002 0.258367 2.024000 59 63 63
-0.346565 0.262707 2.058000 61 67 67
-0.166155 0.267175 2.093000 70 72 77
0.020429 0.270877 2.122000 86 89 92
0.209314 0.270877 2.122000 84 88 88
0.408146 0.277642 2.175000 93 91 91
0.605899 0.279557 2.190000 122 125 128
0.274447 0.075314 0.590000 133 132 129
0.301473 0.069443 0.544000 37 35 29
0.342924 0.067783 0.531000 90 85 68
0.420318 0.073017 0.572000 131 163 139
0.488534 0.075697 0.593000 184 192 185
-0.696246 0.233574 1.793000 63 69 69
-0.595907 0.259367 1.991000 58 62 61
-0.424150 0.262754 2.017000 59 63 63
-0.252130 0.270831 2.079000 63 68 71
-0.068233 0.275520 2.115000 78 81 84
0.120881 0.277474 2.130000 81 83 88
0.312519 0.279298 2.144000 88 85 89
0.510642 0.283337 2.175000 125 125 126
0.271743 0.083633 0.642000 134 133 130
0.283296 0.072039 0.553000 128 127 124
0.304259 0.065916 0.506000 126 127 114
0.377602 0.071258 0.547000 169 178 176
0.462142 0.077250 0.593000 189 199 194
-0.710645 0.220859 1.662000 70 74 73
-0.642946 0.252354 1.899000 59 63 62
-0.498617 0.265510 1.998000 61 65 65
-0.326067 0.269895 2.031000 61 67 67
-0.148715 0.276274 2.079000 72 73 81
0.036588 0.278134 2.093000 86 89 92
0.224490 0.280127 2.108000 85 88 91
0.419168 0.284911 2.144000 104 102 102
0.614564 0.287037 2.160000 126 124 130
0.272459 0.076543 0.576000 126 126 120
0.301811 0.071361 0.537000 35 36 28
0.349141 0.070696 0.532000 102 98 84
0.426308 0.076012 0.572000 161 182 164
0.493075 0.078537 0.591000 205 214 205
-0.659688 0.241607 1.783000 61 70 68
-0.550429 0.265456 1.959000 59 63 62
-0.382195 0.269792 1.991000 62 66 66
-0.212588 0.279819 2.065000 67 71 76
-0.029166 0.283614 2.093000 80 83 86
0.157138 0.283614 2.093000 87 90 93
0.349514 0.288627 2.130000 93 93 94
0.542655 0.290524 2.144000 122 124 129
0.271419 0.082794 0.611000 134 133 130
0.287946 0.073173 0.540000 62 60 54
0.326804 0.070870 0.523000 126 128 117
0.398344 0.075612 0.558000 125 158 124
0.476917 0.080490 0.594000 194 204 199
-0.705266 0.242683 1.757000 62 68 67
-0.604476 0.267270 1.935000 58 62 61
-0.440501 0.272380 1.972000 62 66 66
-0.273835 0.281496 2.038000 66 70 75
-0.094286 0.287159 2.079000 75 79 84
0.090467 0.286192 2.072000 85 89 94
0.278617 0.290060 2.100000 84 87 90
0.472195 0.294204 2.130000 119 124 127
0.266344 0.091438 0.662000 134 132 132
0.271714 0.076382 0.553000 132 131 128
0.297901 0.070581 0.511000 50 47 37
0.358842 0.073758 0.534000 172 177 164
0.438337 0.079559 0.576000 173 181 174
-0.700845 0.222513 1.581000 68 78 73
-0.639120 0.253898 1.804000 67 73 73
-0.513290 0.272335 1.935000 59 63 62
-0.346514 0.276698 1.966000 63 67 67
-0.178319 0.287676 2.044000 71 75 80
0.003674 0.291617 2.072000 86 88 93
0.189380 0.293587 2.086000 91 90 94
0.379016 0.296684 2.108000 115 115 116
0.572570 0.299780 2.130000 126 128 133
0.268219 0.085993 0.611000 138 137 134
0.284410 0.075438 0.536000 70 62 55
0.330056 0.074030 0.526000 127 129 118
0.396938 0.077971 0.554000 135 163 139
0.476861 0.083319 0.592000 194 204 199
-0.688143 0.249016 1.737000 66 75 74
-0.586973 0.273961 1.911000 59 63 62
-0.423413 0.278261 1.941000 60 66 66
-0.261356 0.290160 2.024000 66 70 75
-0.082558 0.295035 2.058000 79 83 88
0.100289 0.294031 2.051000 91 94 97
0.286716 0.298045 2.079000 86 90 90
0.478355 0.302203 2.108000 121 125 130
0.262328 0.095334 0.665000 131 131 131
0.267360 0.078848 0.550000 135 134 131
0.293820 0.072253 0.504000 47 48 35
0.357498 0.076267 0.532000 173 178 163
0.436054 0.082145 0.573000 164 174 169
-0.701994 0.232543 1.593000 70 76 75
-0.638265 0.264950 1.815000 66 72 71
-0.501921 0.278964 1.911000 62 66 65
-0.337026 0.283343 1.941000 61 67 67
-0.170175 0.293562 2.011000 75 78 86
0.009006 0.299401 2.051000 84 87 90
0.193533 0.302466 2.072000 92 95 98
0.380522 0.304510 2.086000 125 124 128
0.574075 0.308743 2.115000 125 127 132
0.263867 0.086711 0.594000 132 130 130
0.284213 0.077806 0.533000 57 57 46
0.330173 0.076492 0.524000 134 136 125
0.395512 0.080288 0.550000 152 171 160
0.477603 0.086273 0.591000 195 202 198
-0.675530 0.256774 1.728000 70 74 74
-0.569720 0.280400 1.887000 59 66 62
-0.406863 0.283967 1.911000 62 66 65
-0.247537 0.296895 1.998000 66 71 74
-0.070840 0.301798 2.031000 86 89 92
0.109945 0.301798 2.031000 93 92 96
0.294596 0.305810 2.058000 99 103 103
0.484285 0.309971 2.086000 125 127 132
0.264863 0.099113 0.667000 132 133 130
0.263957 0.080688 0.543000 130 131 128
0.291488 0.074298 0.500000 51 49 35
0.356154 0.078756 0.530000 126 163 124
0.433771 0.084700 0.570000 161 168 164
-0.703518 0.242850 1.606000 73 73 73
-0.635259 0.275209 1.820000 62 71 70
-0.490677 0.285341 1.887000 66 66 66
-0.328866 0.290784 1.923000 67 73 73
-0.162778 0.300160 1.985000 68 71 79
0.014137 0.304999 2.017000 90 90 91
0.196269 0.309081 2.044000 94 93 97
0.383393 0.313315 2.072000 125 128 131
0.571665 0.315432 2.086000 125 128 131
0.260511 0.090275 0.597000 133 131 131
0.278976 0.080295 0.531000 66 60 53
0.322324 0.078329 0.518000 133 135 124
0.383369 0.081504 0.539000 148 161 153
0.468960 0.088611 0.586000 191 198 194
-0.673575 0.265052 1.723000 73 73 74
-0.564588 0.287666 1.870000 62 68 67
-0.401753 0.290281 1.887000 60 66 66
-0.243573 0.302434 1.966000 68 73 76
-0.069898 0.308279 2.004000 81 83 88
0.108484 0.308279 2.004000 86 89 92
0.290731 0.312433 2.031000 116 119 122
0.479410 0.317663 2.065000 126 129 132
0.340650 0.146448 0.952000 134 132 133
0.261526 0.082762 0.538000 131 132 129
0.290905 0.076762 0.499000 47 48 33
0.353466 0.080916 0.526000 115 157 110
0.430727 0.087069 0.566000 163 169 162
-0.705086 0.257986 1.649000 64 69 72
-0.617892 0.285521 1.825000 66 77 76
-0.466673 0.292562 1.870000 63 67 67
-0.306801 0.298976 1.911000 64 66 71
-0.140131 0.306486 1.959000 78 82 87
0.034700 0.310553 1.985000 86 86 87
0.214160 0.314621 2.011000 96 96 97
0.402354 0.321974 2.058000 125 130 133
0.585543 0.321974 2.058000 129 128 132
0.254698 0.089177 0.570000 134 133 130
0.277089 0.078225 0.500000 40 44 33
0.333173 0.081041 0.518000 133 154 129
0.399051 0.085265 0.545000 147 152 148
0.482875 0.091993 0.588000 209 218 216
-0.639917 0.285209 1.793000 66 75 74
-0.496389 0.294753 1.853000 64 68 68
-0.337530 0.300161 1.887000 64 66 71
-0.173875 0.307797 1.935000 79 81 86
-0.001661 0.312728 1.966000 86 88 93
0.175542 0.316704 1.991000 92 95 98
0.359855 0.323067 2.031000 128 135 139
0.542504 0.324181 2.038000 125 124 128
0.254610 0.093373 0.587000 130 129 126
0.274331 0.080647 0.507000 65 60 50
0.323242 0.081602 0.513000 129 130 117
0.386164 0.085420 0.537000 136 147 139
0.474370 0.093373 0.587000 200 209 208
-0.665271 0.286669 1.773000 77 77 77
-0.527200 0.297826 1.842000 62 71 70
-0.368759 0.302353 1.870000 66 71 74
-0.208038 0.310922 1.923000 72 75 78
-0.037326 0.314803 1.947000 81 83 88
0.136820 0.316743 1.959000 97 94 98
0.317392 0.323049 1.998000 126 129 137
0.501685 0.327253 2.024000 127 130 133
0.254730 0.101054 0.625000 142 138 138
0.262195 0.085370 0.528000 133 132 129
0.303398 0.082298 0.509000 123 124 116
0.358981 0.084724 0.524000 160 169 173
0.437362 0.091353 0.565000 178 184 183
-0.685188 0.276852 1.685000 70 74 74
-0.581575 0.300841 1.831000 69 78 77
-0.423621 0.304455 1.853000 63 66 69
-0.265939 0.312999 1.905000 71 76 79
-0.098191 0.318914 1.941000 78 80 85
0.075544 0.323022 1.966000 93 93 94
0.249652 0.321872 1.959000 123 126 129
0.435284 0.330416 2.011000 123 126 134
0.333872 0.156746 0.954000 134 132 133
0.252603 0.088724 0.540000 133 131 131
0.279663 0.081002 0.493000 42 42 31
0.337985 0.084617 0.515000 139 160 135
0.406930 0.089710 0.546000 149 157 150
0.491407 0.096775 0.589000 221 231 226
-0.621140 0.299291 1.793000 72 77 80
-0.469777 0.304633 1.825000 63 69 68
-0.313896 0.311143 1.864000 68 71 74
-0.151230 0.317987 1.905000 78 81 84
0.018686 0.323996 1.941000 88 87 91
0.192052 0.324997 1.947000 97 97 98
0.373617 0.332342 1.991000 132 136 141
0.552779 0.333510 1.998000 126 125 129
0.249783 0.093309 0.559000 132 131 128
0.267390 0.083294 0.499000 54 50 43
0.317431 0.084796 0.508000 140 151 130
0.378355 0.088469 0.530000 129 137 139
0.474286 0.097649 0.585000 210 219 217
-0.649142 0.299577 1.767000 76 80 80
-0.502155 0.305850 1.804000 67 75 77
-0.350853 0.314158 1.853000 63 67 67
-0.188721 0.318905 1.881000 78 81 84
-0.021695 0.325008 1.917000 80 81 89
0.148943 0.325008 1.917000 96 95 99
0.326583 0.332129 1.959000 129 135 142
0.502749 0.333316 1.966000 125 128 131
0.251277 0.100029 0.590000 133 131 131
0.264662 0.087144 0.514000 124 125 122
0.306187 0.085957 0.507000 134 142 135
0.362404 0.088669 0.523000 146 155 154
0.437108 0.094773 0.559000 202 209 205
-0.674151 0.294907 1.713000 71 77 77
-0.549384 0.310573 1.804000 70 78 80
-0.395701 0.316082 1.836000 65 68 71
-0.235816 0.320903 1.864000 76 80 85
-0.070983 0.325895 1.893000 76 74 80
0.099064 0.331060 1.923000 98 96 97
0.270237 0.331060 1.923000 124 133 137
0.448295 0.336225 1.953000 123 126 134
0.353246 0.166305 0.966000 132 132 132
0.255991 0.089694 0.521000 129 126 123
0.290759 0.086251 0.501000 47 50 37
0.342718 0.088145 0.512000 133 141 143
0.414078 0.093998 0.546000 189 196 192
-0.711023 0.296071 1.694000 70 79 77
-0.591322 0.312500 1.788000 69 75 75
-0.437242 0.316170 1.809000 62 66 65
-0.281257 0.321938 1.842000 76 80 85
-0.119077 0.326832 1.870000 76 79 82
0.048568 0.335046 1.917000 92 95 98
0.219206 0.335046 1.917000 127 130 133
0.395945 0.340289 1.947000 130 135 144
0.328122 0.170232 0.974000 126 130 130
0.248863 0.093505 0.535000 133 132 129
0.274872 0.086689 0.496000 46 41 31
0.324811 0.088262 0.505000 100 104 86
0.392461 0.093680 0.536000 150 157 153
0.488323 0.102943 0.589000 220 231 230
-0.610401 0.312569 1.762000 70 77 81
-0.457679 0.315407 1.778000 70 76 76
-0.307328 0.323745 1.825000 71 74 82
-0.146626 0.327647 1.847000 76 80 80
0.018282 0.336872 1.899000 90 94 94
0.186726 0.335807 1.893000 120 122 127
0.361983 0.342194 1.929000 132 138 145
0.540329 0.346451 1.953000 129 132 135
0.246948 0.095793 0.540000 131 130 127
0.271523 0.088165 0.497000 49 43 36
0.320210 0.089407 0.504000 85 91 68
0.383905 0.094019 0.530000 145 155 150
0.494491 0.104485 0.589000 224 234 236
-0.582723 0.317182 1.762000 76 82 82
-0.430958 0.320962 1.783000 60 68 70
-0.277134 0.326722 1.815000 67 71 76
-0.117295 0.331583 1.842000 76 81 84
0.047960 0.340763 1.893000 92 96 96
0.217147 0.341843 1.899000 132 137 140
0.389844 0.345084 1.917000 133 135 145
0.572761 0.352644 1.959000 126 129 132
0.250535 0.093786 0.521000 129 131 125
0.283803 0.089646 0.498000 43 43 32
0.332744 0.090906 0.505000 140 147 143
0.402377 0.096847 0.538000 188 195 191
-0.692089 0.312846 1.713000 74 80 80
-0.551895 0.319968 1.752000 70 77 81
-0.402950 0.325630 1.783000 64 70 69
-0.249308 0.332387 1.820000 76 79 82
-0.088360 0.336405 1.842000 80 83 86
0.077695 0.345719 1.893000 90 90 91
0.246197 0.345719 1.893000 133 137 142
0.417327 0.347911 1.905000 128 134 141
0.597988 0.354485 1.941000 128 127 131
0.251318 0.094420 0.517000 126 128 122
0.285836 0.090767 0.497000 51 56 43
0.335388 0.092228 0.505000 127 133 133
0.404440 0.098072 0.537000 196 203 199
-0.689612 0.318257 1.718000 76 82 82
-0.541373 0.321035 1.733000 73 82 86
-0.396049 0.328445 1.773000 65 74 72
-0.243066 0.335114 1.809000 76 79 82
-0.083039 0.339190 1.831000 83 86 89
0.082389 0.349564 1.887000 89 88 92
0.249561 0.348452 1.881000 133 136 144
0.419655 0.350675 1.893000 128 131 139
0.601206 0.358456 1.935000 129 128 132
0.248214 0.096144 0.519000 121 126 122
0.281365 0.091883 0.496000 43 44 31
0.330109 0.093180 0.503000 131 141 136
0.397987 0.098923 0.534000 186 196 191
-0.703105 0.322754 1.718000 69 75 75
-0.551782 0.323694 1.723000 77 86 85
-0.405118 0.329142 1.752000 67 75 77
-0.255852 0.337972 1.799000 73 77 77
-0.096568 0.340977 1.815000 79 83 83
0.067175 0.352437 1.876000 97 96 100
0.234163 0.352437 1.876000 133 137 142
0.403504 0.354504 1.887000 123 126 134
0.586008 0.363521 1.935000 133 130 134
0.245549 0.098066 0.522000 126 127 124
0.276910 0.092994 0.495000 43 41 29
0.324213 0.093933 0.500000 131 133 127
0.390106 0.099381 0.529000 179 189 184
0.489601 0.109902 0.585000 231 240 244
-0.560393 0.325347 1.708000 79 85 85
-0.414336 0.330109 1.733000 70 75 78
-0.267580 0.339634 1.783000 74 80 80
-0.109480 0.341539 1.793000 80 84 84
0.051965 0.354111 1.859000 93 93 94
0.218025 0.355063 1.864000 134 137 145
0.386417 0.357349 1.876000 136 137 145
0.569040 0.367444 1.929000 132 132 133
0.242832 0.101147 0.531000 128 129 126
0.270430 0.094290 0.495000 53 56 41
0.316398 0.094861 0.498000 88 93 80
0.378110 0.099433 0.522000 164 173 171
0.479343 0.110481 0.580000 230 237 241
-0.575232 0.328081 1.699000 74 78 78
-0.428741 0.331750 1.718000 66 72 72
-0.284646 0.342371 1.773000 74 79 82
-0.126826 0.342371 1.773000 78 84 84
0.032200 0.355695 1.842000 93 92 96
0.197334 0.357819 1.853000 133 135 145
0.363448 0.358977 1.859000 130 133 141
0.543718 0.369019 1.911000 116 119 122
0.241739 0.104468 0.541000 126 127 124
0.266318 0.095972 0.497000 88 82 75
0.308683 0.095393 0.494000 88 84 77
0.368361 0.099641 0.516000 153 160 156
0.469057 0.110648 0.573000 219 225 232
-0.583726 0.329789 1.685000 74 77 80
-0.438630 0.333508 1.704000 70 75 78
-0.295877 0.343881 1.757000 71 75 80
-0.139481 0.343881 1.757000 81 86 89
0.017569 0.357190 1.825000 91 94 97
0.182188 0.361496 1.847000 125 130 141
0.345657 0.360517 1.842000 131 134 142
0.523729 0.370499 1.893000 125 129 134
0.241002 0.107451 0.549000 130 131 128
0.262943 0.097469 0.498000 134 127 128
0.302952 0.096099 0.491000 133 147 130
0.360072 0.099817 0.510000 130 141 133
0.474529 0.112735 0.576000 223 230 234
-0.573198 0.333209 1.680000 74 80 80
-0.428447 0.336977 1.699000 68 73 76
-0.285862 0.347489 1.752000 73 76 79
-0.129911 0.347489 1.752000 83 86 89
0.026977 0.359984 1.815000 88 91 94
0.190717 0.364149 1.836000 123 129 136
0.354145 0.364149 1.836000 131 134 142
0.530258 0.373075 1.881000 127 130 138
0.240673 0.108094 0.545000 128 128 128
0.263185 0.098376 0.496000 113 106 107
0.302998 0.096988 0.489000 136 144 132
0.361407 0.101153 0.510000 139 146 142
0.476863 0.114441 0.577000 217 223 230
-0.561378 0.335798 1.671000 76 80 80
-0.418316 0.340420 1.694000 69 74 77
-0.275109 0.350066 1.742000 73 76 79
-0.120393 0.351071 1.747000 87 90 93
0.036259 0.362526 1.804000 98 102 102
0.199130 0.366746 1.825000 132 135 143
0.362767 0.367951 1.831000 130 133 141
0.535226 0.374583 1.864000 131 134 142
0.240051 0.106708 0.531000 125 123 123
0.265674 0.098670 0.491000 73 72 64
0.308119 0.098268 0.489000 75 75 64
0.369624 0.103292 0.514000 180 189 187
-0.675121 0.340173 1.671000 72 77 80
-0.525120 0.339359 1.667000 74 82 84
-0.381933 0.344041 1.690000 70 74 79
-0.237939 0.353609 1.737000 75 79 84
-0.083803 0.355645 1.747000 84 87 90
0.074248 0.368266 1.809000 120 122 132
0.233972 0.366231 1.799000 123 126 134
0.402212 0.373763 1.836000 123 123 133
0.569029 0.376002 1.847000 125 129 129
0.246318 0.102602 0.504000 134 134 128
0.279626 0.098530 0.484000 59 61 50
0.330709 0.100973 0.496000 107 116 114
0.399044 0.107487 0.528000 201 209 202
-0.596076 0.341867 1.658000 75 83 85
-0.453362 0.345579 1.676000 74 78 83
-0.309258 0.351352 1.704000 77 82 85
-0.158874 0.354239 1.718000 83 85 90
-0.006085 0.362280 1.757000 93 92 96
0.155273 0.374240 1.815000 126 131 140
0.312119 0.368672 1.788000 128 131 139
0.485507 0.379807 1.842000 124 127 135
0.236377 0.109076 0.529000 126 127 124
0.262567 0.101034 0.490000 114 116 110
0.303059 0.100003 0.485000 83 79 72
0.363364 0.104952 0.509000 179 188 186
-0.638388 0.343285 1.644000 75 81 81
-0.497438 0.347043 1.662000 74 82 84
-0.353283 0.350802 1.680000 72 77 80
-0.206652 0.355813 1.704000 77 82 85
-0.055748 0.360825 1.728000 91 90 94
0.101472 0.373353 1.788000 140 142 147
0.258441 0.370221 1.773000 125 132 136
0.428469 0.381079 1.825000 131 134 142
0.230757 0.116725 0.559000 130 130 130
0.256175 0.103361 0.495000 132 130 124
0.292351 0.100647 0.482000 126 137 123
0.347080 0.104196 0.499000 128 135 131
0.480561 0.120275 0.576000 224 235 239
-0.530787 0.347589 1.644000 75 79 84
-0.388658 0.351394 1.662000 70 75 78
-0.244050 0.356257 1.685000 75 82 86
-0.095347 0.361120 1.708000 89 89 90
0.058314 0.371480 1.757000 124 129 132
0.215321 0.372537 1.762000 128 131 139
0.378709 0.379092 1.793000 130 131 139
0.536809 0.378034 1.788000 126 123 132
0.238770 0.106137 0.502000 134 133 130
0.271032 0.101486 0.480000 59 57 43
0.318987 0.103177 0.488000 109 115 108
0.386934 0.110154 0.521000 202 209 205
-0.594909 0.349110 1.631000 70 79 78
-0.457174 0.354889 1.658000 70 76 76
-0.312952 0.358742 1.676000 74 77 80
-0.165134 0.361739 1.690000 77 81 86
-0.014902 0.366662 1.713000 105 105 106
0.142397 0.379505 1.773000 135 140 149
0.296661 0.375010 1.752000 131 137 144
0.464754 0.385070 1.799000 123 129 136
0.229106 0.118796 0.555000 126 125 122
0.251268 0.105525 0.493000 132 131 128
0.286171 0.102314 0.478000 111 143 107
0.340410 0.105953 0.495000 116 125 124
0.467772 0.121150 0.566000 220 233 239
-0.539399 0.353380 1.631000 76 82 82
-0.397361 0.356197 1.644000 73 73 74
-0.253161 0.359230 1.658000 82 87 90
-0.107615 0.366163 1.690000 87 87 88
0.043653 0.373313 1.723000 111 113 118
0.199766 0.378513 1.747000 131 138 142
0.358323 0.381763 1.762000 130 134 139
0.515164 0.381763 1.762000 130 128 134
0.233712 0.111366 0.514000 128 127 124
0.263153 0.104866 0.484000 66 65 57
0.303705 0.103999 0.480000 68 75 66
0.372207 0.110932 0.512000 201 209 202
-0.602609 0.352168 1.606000 80 83 86
-0.466809 0.357650 1.631000 72 76 76
-0.325967 0.362474 1.653000 78 82 82
-0.180776 0.366421 1.671000 72 75 78
-0.032476 0.371465 1.694000 106 109 112
0.121315 0.380894 1.737000 134 136 146
0.274501 0.378921 1.728000 129 136 140
0.440709 0.389885 1.778000 126 126 136
0.595269 0.387473 1.767000 133 133 134
0.245388 0.107229 0.489000 131 131 125
0.281235 0.104379 0.476000 121 165 118
0.332443 0.107229 0.489000 113 119 118
-0.639436 0.353488 1.593000 74 83 82
-0.502949 0.357260 1.610000 75 75 76
-0.364329 0.361920 1.631000 74 77 80
-0.220895 0.364805 1.644000 73 77 77
-0.076191 0.372793 1.680000 95 95 96
0.074574 0.379007 1.708000 126 130 135
0.227935 0.381226 1.718000 132 135 143
0.388397 0.388770 1.752000 124 130 137
0.544348 0.388770 1.752000 123 126 129
0.234908 0.112060 0.505000 133 132 129
0.265451 0.106290 0.479000 69 63 56
0.306802 0.105847 0.477000 96 94 82
0.433748 0.120270 0.542000 214 225 224
-0.565784 0.358557 1.597000 83 88 91
-0.431588 0.365292 1.627000 72 81 80
-0.288350 0.367313 1.636000 75 73 79
-0.144208 0.371130 1.653000 86 91 94
0.002987 0.378314 1.685000 123 127 132
0.155970 0.385723 1.718000 124 129 140
0.307996 0.384601 1.713000 132 138 145
0.468271 0.391112 1.742000 128 131 134
0.232624 0.124159 0.553000 130 131 128
0.247190 0.108892 0.485000 136 142 135
0.283776 0.106422 0.474000 84 94 75
0.339310 0.109116 0.486000 197 207 209
-0.605646 0.359103 1.581000 78 84 83
-0.469621 0.362738 1.597000 67 72 75
-0.333619 0.369552 1.627000 69 73 73
-0.190767 0.373413 1.644000 79 83 83
-0.045159 0.379546 1.671000 119 123 123
0.104759 0.383861 1.690000 117 122 131
0.256550 0.385906 1.699000 122 128 135
0.418104 0.395672 1.742000 127 128 136
0.574810 0.396808 1.747000 128 126 127
0.235147 0.111070 0.489000 130 129 126
0.270126 0.107663 0.474000 52 56 45
0.310913 0.106754 0.470000 106 107 99
0.472863 0.128332 0.565000 177 188 187
-0.503438 0.364161 1.585000 72 76 75
-0.367154 0.368986 1.606000 73 77 77
-0.226572 0.372892 1.623000 83 86 89
-0.083874 0.380934 1.658000 102 108 108
0.064555 0.385988 1.680000 120 122 132
0.215881 0.389205 1.694000 122 127 136
0.372946 0.395868 1.723000 135 142 146
0.529370 0.398165 1.733000 128 125 129
0.231399 0.116256 0.506000 128 128 122
0.259504 0.109134 0.475000 125 125 119
0.302815 0.107296 0.467000 89 86 76
0.417388 0.122230 0.532000 209 218 217
-0.576403 0.364593 1.569000 74 79 82
-0.443422 0.370170 1.593000 67 73 72
-0.304085 0.373191 1.606000 74 77 80
-0.164140 0.380162 1.636000 86 89 92
-0.018707 0.384112 1.653000 124 130 137
0.129830 0.388295 1.671000 116 118 128
0.281738 0.392710 1.690000 130 134 139
0.441888 0.401540 1.728000 117 120 128
0.226200 0.128967 0.555000 130 128 128
0.239352 0.112004 0.482000 136 141 137
0.275229 0.109215 0.470000 49 71 37
0.317877 0.107821 0.464000 176 188 178
0.426935 0.124784 0.537000 209 215 214
-0.554447 0.367761 1.565000 74 74 75
-0.423630 0.375281 1.597000 74 80 79
-0.281476 0.375281 1.597000 78 82 87
-0.141940 0.382330 1.627000 84 84 85
0.002924 0.387500 1.649000 119 125 132
0.151340 0.391730 1.667000 132 133 141
0.304580 0.398075 1.694000 125 128 136
0.461819 0.403714 1.718000 119 123 128
0.232203 0.129715 0.552000 124 124 124
0.244362 0.112091 0.477000 136 137 134
0.281409 0.109976 0.468000 69 64 54
0.326909 0.110446 0.470000 192 201 200
0.418781 0.125015 0.532000 203 213 208
-0.559765 0.369957 1.557000 69 73 72
-0.428746 0.376610 1.585000 71 77 76
-0.289112 0.378511 1.593000 74 78 83
-0.150089 0.385639 1.623000 90 89 93
-0.005666 0.388728 1.636000 118 125 129
0.141414 0.392768 1.653000 132 134 139
0.294139 0.400371 1.685000 134 138 143
0.450188 0.405836 1.708000 121 128 132
0.230975 0.132111 0.556000 130 130 130
0.241120 0.113577 0.478000 130 130 130
0.276547 0.110726 0.466000 104 142 99
0.313932 0.109300 0.460000 172 180 168
0.407172 0.124982 0.526000 206 215 213
-0.578656 0.373073 1.553000 69 73 73
-0.442688 0.374994 1.561000 70 76 75
-0.308408 0.380760 1.585000 68 76 78
-0.170384 0.387726 1.614000 85 90 93
-0.026866 0.389888 1.623000 114 119 128
0.119124 0.394933 1.644000 127 128 136
0.268368 0.399257 1.662000 129 134 143
0.426828 0.409347 1.704000 121 124 132
0.224501 0.134047 0.558000 123 123 123
0.236608 0.115069 0.479000 137 136 133
0.270501 0.111465 0.464000 63 61 47
0.308443 0.110264 0.459000 167 170 155
0.393438 0.124197 0.517000 201 211 206
-0.597984 0.379081 1.561000 74 74 75
-0.455506 0.376167 1.549000 71 75 74
-0.322546 0.381995 1.573000 74 79 82
-0.185778 0.388795 1.601000 80 83 86
-0.043511 0.390981 1.610000 119 123 128
0.101412 0.397294 1.636000 119 119 129
0.248245 0.399237 1.644000 121 124 132
0.405623 0.410408 1.690000 123 126 134
0.565268 0.417208 1.718000 127 131 131
0.234589 0.116566 0.480000 135 136 133
0.266916 0.112194 0.462000 63 61 49
0.306706 0.111709 0.460000 153 148 131
0.388464 0.124822 0.514000 199 205 204
-0.606158 0.383168 1.561000 75 75 76
-0.462419 0.379240 1.545000 66 72 72
-0.328259 0.383168 1.561000 77 81 81
-0.193190 0.391023 1.593000 79 83 83
-0.051651 0.392986 1.601000 124 128 133
0.092562 0.400350 1.631000 133 136 144
0.237742 0.400350 1.631000 130 131 139
0.394427 0.412378 1.680000 127 130 138
0.554654 0.420478 1.713000 126 125 129
0.230208 0.118804 0.484000 129 130 127
0.260868 0.113404 0.462000 137 138 130
0.300031 0.112668 0.459000 150 138 116
0.374309 0.123713 0.504000 189 196 192
0.460756 0.135987 0.554000 151 181 164
-0.476121 0.381301 1.537000 69 75 75
-0.341074 0.383285 1.545000 72 76 76
-0.207764 0.391224 1.577000 76 80 80
-0.068075 0.395193 1.593000 126 131 140
0.075112 0.402636 1.623000 118 121 129
0.219580 0.402636 1.623000 127 128 136
0.374815 0.414544 1.671000 126 126 136
0.532328 0.421490 1.699000 126 129 132
0.229257 0.119575 0.482000 131 132 129
0.259739 0.114117 0.460000 132 136 125
0.300031 0.113869 0.459000 124 111 96
0.374309 0.125033 0.504000 190 195 191
0.459924 0.137189 0.553000 130 158 134
-0.469640 0.383319 1.529000 76 82 82
-0.336156 0.386327 1.541000 71 75 75
-0.203119 0.394350 1.573000 81 85 85
-0.063583 0.397358 1.585000 122 127 136
0.078921 0.404628 1.614000 125 128 136
0.222588 0.404628 1.614000 128 129 137
0.377147 0.416662 1.662000 126 127 135
0.535197 0.424684 1.694000 123 127 127
0.228781 0.120586 0.481000 133 133 133
0.259174 0.115071 0.459000 133 136 128
0.300031 0.115071 0.459000 107 98 87
0.373566 0.126102 0.503000 191 198 194
0.459092 0.138386 0.552000 112 136 110
-0.467489 0.385549 1.522000 76 82 82
-0.334411 0.388335 1.533000 76 76 77
-0.201570 0.395428 1.561000 86 86 87
-0.063262 0.399481 1.577000 128 133 142
0.078529 0.406827 1.606000 124 130 137
0.222036 0.407841 1.610000 126 129 137
0.375105 0.418733 1.653000 126 127 135
0.532353 0.426839 1.685000 123 127 127
0.227354 0.121086 0.478000 130 130 130
0.258610 0.116019 0.458000 138 141 133
0.299378 0.116019 0.458000 97 90 80
0.372823 0.127165 0.502000 189 199 194
0.458261 0.139578 0.551000 101 130 103
-0.461068 0.387486 1.514000 75 81 81
-0.329536 0.391325 1.529000 78 76 77
-0.196471 0.397467 1.553000 92 96 95
-0.058834 0.401562 1.569000 130 135 144
0.082270 0.408729 1.597000 125 128 136
0.224986 0.409752 1.601000 125 132 136
0.376448 0.419734 1.640000 125 126 134
0.532305 0.427668 1.671000 121 125 125
0.226879 0.122081 0.477000 130 129 126
0.258045 0.116962 0.457000 137 143 136
0.298724 0.116962 0.457000 78 74 67
0.372081 0.128224 0.501000 183 193 188
0.457429 0.140764 0.550000 99 127 108
-0.449849 0.388605 1.503000 65 74 72
-0.320058 0.393518 1.522000 77 75 76
-0.187369 0.399465 1.545000 100 106 105
-0.050489 0.404636 1.565000 121 123 133
0.089951 0.409807 1.585000 129 135 142
0.232203 0.411875 1.593000 125 128 136
0.381983 0.420666 1.627000 127 128 136
0.538140 0.429715 1.662000 121 121 121
0.229702 0.121520 0.470000 129 126 123
0.262294 0.117383 0.454000 131 135 124
0.306040 0.118676 0.459000 127 135 128
0.384685 0.131604 0.509000 117 120 128
-0.558908 0.391757 1.500000 70 76 75
-0.424254 0.390712 1.496000 72 78 71
-0.294593 0.395413 1.514000 78 82 82
-0.162255 0.401420 1.537000 113 117 122
-0.025906 0.408733 1.565000 121 128 132
0.114559 0.412912 1.581000 130 131 139
0.257226 0.416046 1.593000 125 129 134
0.405286 0.422575 1.618000 130 129 133
0.224903 0.145995 0.559000 118 118 118
0.232127 0.121445 0.465000 136 133 130
0.265284 0.117788 0.451000 121 132 124
0.311523 0.120139 0.460000 113 117 117
0.393846 0.134242 0.514000 138 157 164
-0.536319 0.390672 1.481000 68 74 74
-0.406676 0.392782 1.489000 77 83 76
-0.277450 0.397530 1.507000 76 80 79
-0.145114 0.402542 1.526000 119 122 130
-0.009517 0.412830 1.565000 121 124 132
0.130784 0.415996 1.577000 125 131 138
0.275284 0.422327 1.601000 129 131 136
0.421186 0.425756 1.614000 129 128 132
0.228281 0.145875 0.553000 125 123 124
0.235141 0.121079 0.459000 133 134 131
0.269383 0.118178 0.448000 89 115 82
0.320997 0.122662 0.465000 137 138 130
0.405251 0.137170 0.520000 140 181 152
-0.509591 0.391885 1.471000 69 77 79
-0.383287 0.396680 1.489000 71 76 72
-0.252599 0.399611 1.500000 83 87 87
-0.120508 0.404406 1.518000 116 122 129
0.015066 0.416927 1.565000 136 142 149
0.155555 0.420124 1.577000 126 128 138
0.302872 0.429981 1.614000 121 119 125
0.447646 0.431047 1.618000 120 123 126
0.217668 0.130540 0.490000 123 125 119
0.242621 0.121215 0.455000 135 139 138
0.278766 0.119350 0.448000 60 63 48
0.337848 0.126543 0.475000 166 176 171
0.424945 0.141462 0.531000 99 137 118
-0.474931 0.395736 1.471000 71 77 76
-0.347267 0.399503 1.485000 77 82 78
-0.217690 0.404345 1.503000 104 108 108
-0.085187 0.410533 1.526000 124 130 137
0.051543 0.417796 1.553000 130 136 143
0.192713 0.424253 1.577000 125 126 134
0.339212 0.432055 1.606000 124 128 133
0.485770 0.435283 1.618000 121 125 125
0.221559 0.126711 0.471000 125 125 119
0.251177 0.120792 0.449000 131 133 127
0.291792 0.121061 0.450000 61 67 49
0.362820 0.132360 0.492000 115 121 128
0.452896 0.147426 0.548000 145 164 173
-0.435233 0.398501 1.467000 70 76 75
-0.309220 0.404477 1.489000 74 80 80
-0.177985 0.407465 1.500000 113 117 117
-0.045562 0.417516 1.537000 123 125 135
0.091726 0.419689 1.545000 126 129 137
0.233406 0.427295 1.573000 125 129 134
0.378171 0.432728 1.593000 128 131 134
0.524213 0.436259 1.606000 122 126 125
0.227223 0.124956 0.460000 130 127 124
0.259424 0.120881 0.445000 131 134 126
0.305755 0.123598 0.455000 89 93 82
0.386589 0.137995 0.508000 122 164 138
-0.525093 0.397679 1.450000 64 70 69
-0.400667 0.402341 1.467000 81 80 84
-0.272663 0.406181 1.481000 83 82 86
-0.141595 0.408375 1.489000 126 130 135
-0.009371 0.422637 1.541000 119 125 132
0.128130 0.423734 1.545000 117 120 128
0.271157 0.432510 1.577000 125 124 128
0.413618 0.434704 1.585000 125 128 131
0.562054 0.440464 1.606000 121 122 119
0.235105 0.123966 0.452000 129 129 129
0.269856 0.121498 0.443000 93 109 87
0.323951 0.127257 0.464000 160 177 171
0.410122 0.142890 0.521000 114 144 133
-0.487132 0.401475 1.450000 72 77 73
-0.361520 0.405351 1.464000 78 82 81
-0.233416 0.409228 1.478000 105 109 109
-0.103095 0.414212 1.496000 121 124 132
0.030812 0.424456 1.533000 118 118 128
0.169451 0.429994 1.553000 123 120 129
0.311651 0.435531 1.573000 125 127 132
0.455114 0.438854 1.585000 126 130 130
0.216434 0.131795 0.476000 123 123 117
0.242493 0.123488 0.446000 132 138 131
0.280294 0.122658 0.443000 108 122 91
0.344266 0.132071 0.477000 153 154 151
0.432938 0.147854 0.534000 153 173 185
-0.448241 0.404433 1.447000 69 78 77
-0.324737 0.411141 1.471000 74 80 79
-0.195117 0.413936 1.481000 121 125 130
-0.064399 0.421203 1.507000 119 126 130
0.070437 0.425395 1.522000 126 132 139
0.210109 0.434060 1.553000 128 130 135
0.352833 0.439650 1.573000 123 125 130
0.495357 0.441885 1.581000 116 120 120
0.220954 0.129128 0.462000 125 125 119
0.250732 0.123538 0.442000 133 135 129
0.293357 0.124935 0.447000 100 105 92
0.367430 0.137792 0.493000 125 158 131
0.462206 0.154842 0.554000 158 180 193
-0.414146 0.408221 1.447000 74 78 77
-0.290077 0.414992 1.471000 85 89 88
-0.159139 0.414992 1.471000 126 127 135
-0.028968 0.426277 1.511000 124 130 137
0.106020 0.428251 1.518000 128 132 137
0.247337 0.439254 1.557000 123 125 130
0.388905 0.442639 1.569000 118 123 126
0.533956 0.447153 1.585000 114 118 117
0.226821 0.127516 0.452000 127 127 121
0.258784 0.123567 0.438000 137 138 130
0.307969 0.127798 0.453000 72 73 60
0.390579 0.143315 0.508000 95 120 110
-0.502876 0.407169 1.430000 71 75 74
-0.380052 0.412009 1.447000 71 77 77
