0.858548 -0.405248 2.963000 208 214 221
0.299958 -0.095739 0.700000 55 51 39
0.389564 -0.099431 0.727000 55 46 47
0.480652 -0.104765 0.766000 64 63 67
0.541492 -0.102987 0.753000 44 50 64
0.586979 -0.099021 0.724000 67 80 101
-0.879058 -0.272462 2.031000 71 52 22
-0.775182 -0.304792 2.272000 31 32 29
-0.586461 -0.315256 2.350000 32 32 33
-0.432404 -0.367307 2.738000 60 51 38
-0.197363 -0.399369 2.977000 142 133 128
0.279169 -0.101687 0.758000 180 184 184
0.314591 -0.091760 0.684000 35 32 22
0.435094 -0.102894 0.767000 65 56 51
0.508011 -0.103431 0.771000 38 36 42
0.558394 -0.099809 0.744000 46 54 74
-0.955477 -0.240838 1.831000 39 40 37
-0.858831 -0.272537 2.072000 74 51 26
-0.728056 -0.296608 2.255000 32 30 30
-0.541314 -0.307920 2.341000 35 33 33
-0.400096 -0.376975 2.866000 55 47 40
0.724022 -0.384209 2.921000 208 212 217
0.286482 -0.096809 0.736000 60 55 50
0.319299 -0.087338 0.664000 34 32 26
0.451159 -0.100886 0.767000 69 61 59
0.519400 -0.100492 0.764000 29 32 35
0.567033 -0.096677 0.735000 50 63 82
-0.877953 -0.227149 1.762000 68 54 30
-0.829179 -0.269820 2.093000 40 33 28
-0.694344 -0.293927 2.280000 30 30 31
-0.514167 -0.311331 2.415000 36 36 36
-0.339690 -0.361092 2.801000 59 55 48
0.773826 -0.374757 2.907000 209 213 218
0.291003 -0.092046 0.714000 48 48 37
0.328972 -0.084955 0.659000 39 38 35
0.467434 -0.099781 0.774000 71 64 66
0.524446 -0.097202 0.754000 29 32 35
0.573069 -0.093850 0.728000 54 68 85
-0.727213 -0.195635 1.549000 73 53 26
-0.837245 -0.283790 2.247000 31 32 29
-0.642869 -0.288968 2.288000 30 30 31
-0.473926 -0.316122 2.503000 37 37 37
-0.269979 -0.348960 2.763000 92 86 84
0.870399 -0.375987 2.977000 211 217 224
0.301529 -0.087271 0.691000 51 47 40
0.347950 -0.083230 0.659000 36 35 32
0.485177 -0.097249 0.770000 98 93 97
0.537690 -0.094092 0.745000 29 32 40
0.596195 -0.092576 0.733000 62 75 96
-0.832122 -0.236351 1.911000 68 48 16
-0.775285 -0.278897 2.255000 32 31 28
-0.576979 -0.282978 2.288000 31 31 31
-0.428173 -0.329853 2.667000 53 44 31
0.694622 -0.370049 2.992000 204 208 213
0.282608 -0.091646 0.741000 173 179 179
0.314557 -0.082247 0.665000 31 29 23
0.436771 -0.093502 0.756000 49 43 41
0.510061 -0.094244 0.762000 74 84 86
0.559336 -0.090904 0.735000 42 50 64
-0.860527 -0.207983 1.718000 68 54 32
-0.789160 -0.238006 1.966000 43 35 19
-0.701016 -0.273962 2.263000 29 29 30
-0.508706 -0.282315 2.332000 33 33 34
-0.355874 -0.340545 2.813000 54 52 46
0.804286 -0.362215 2.992000 209 213 218
0.295447 -0.084501 0.698000 45 45 39
0.333145 -0.078327 0.647000 36 38 43
0.486438 -0.093459 0.772000 64 60 61
0.535525 -0.089827 0.742000 31 37 37
0.595381 -0.088617 0.732000 57 67 87
-0.709653 -0.186311 1.573000 69 50 27
-0.787208 -0.263181 2.222000 29 29 29
-0.592272 -0.267090 2.255000 31 31 31
-0.436949 -0.302623 2.555000 61 50 39
-0.220296 -0.328680 2.775000 224 214 219
0.290001 -0.083739 0.707000 130 134 123
0.325679 -0.076870 0.649000 58 66 80
0.465018 -0.091201 0.770000 42 38 38
0.518186 -0.088240 0.745000 52 54 59
0.570707 -0.085871 0.725000 44 52 66
-0.797730 -0.187405 1.618000 74 57 34
-0.757077 -0.221342 1.911000 36 32 25
-0.686730 -0.261186 2.255000 27 31 31
-0.494580 -0.269062 2.323000 32 32 33
-0.333505 -0.318519 2.750000 57 55 49
0.279403 -0.086637 0.748000 184 190 189
0.308869 -0.076908 0.664000 36 35 27
0.351895 -0.073202 0.632000 40 38 38
0.502753 -0.088027 0.760000 72 70 76
0.552057 -0.084900 0.733000 27 31 36
-0.866816 -0.180792 1.597000 44 44 44
-0.734604 -0.188716 1.667000 42 35 30
-0.764405 -0.247924 2.190000 27 27 27
-0.574029 -0.252452 2.230000 29 29 29
-0.423570 -0.289244 2.555000 52 43 30
-0.211550 -0.322980 2.853000 163 146 152
0.293619 -0.079019 0.698000 110 116 115
0.327353 -0.072339 0.639000 54 68 76
0.476494 -0.087056 0.769000 39 37 37
0.527043 -0.083887 0.741000 57 60 63
0.582096 -0.082075 0.725000 44 50 64
-0.712828 -0.171745 1.553000 47 36 37
-0.750658 -0.227592 2.058000 27 27 27
-0.606873 -0.245729 2.222000 29 29 30
-0.454267 -0.276805 2.503000 57 50 32
-0.242797 -0.298812 2.702000 236 227 229
0.290412 -0.078297 0.708000 120 125 121
0.322166 -0.070998 0.642000 59 70 83
0.467832 -0.084932 0.768000 33 31 31
0.519283 -0.081947 0.741000 107 113 113
0.572126 -0.079845 0.722000 44 41 50
-0.804140 -0.176101 1.631000 44 38 36
-0.719717 -0.193592 1.793000 26 30 30
-0.685837 -0.239048 2.214000 27 31 31
-0.491909 -0.243475 2.255000 33 33 33
-0.338795 -0.289147 2.678000 57 55 49
0.282183 -0.080438 0.745000 184 190 189
0.309524 -0.071045 0.658000 35 33 27
0.345649 -0.066402 0.615000 38 38 38
0.499351 -0.080546 0.746000 49 46 50
0.554009 -0.078603 0.728000 37 40 43
-0.839646 -0.168670 1.601000 38 39 36
-0.735362 -0.178995 1.699000 36 38 43
-0.734239 -0.226720 2.152000 30 30 31
-0.558511 -0.235780 2.238000 29 29 29
-0.401924 -0.268124 2.545000 48 40 38
-0.194578 -0.309211 2.935000 122 106 108
0.297631 -0.071429 0.678000 136 134 128
0.332696 -0.066056 0.627000 55 55 55
0.480314 -0.079647 0.756000 34 32 33
0.533594 -0.077329 0.734000 74 83 81
0.587754 -0.075644 0.718000 39 41 51
-0.810549 -0.168896 1.644000 43 39 40
-0.701252 -0.179478 1.747000 30 29 33
-0.664804 -0.224271 2.183000 29 29 30
-0.485425 -0.234236 2.280000 36 36 30
-0.321984 -0.272762 2.655000 63 61 55
0.286093 -0.075510 0.735000 176 180 179
0.313048 -0.066881 0.651000 32 30 30
0.346365 -0.062155 0.605000 35 41 41
0.513710 -0.076743 0.747000 46 44 45
0.562675 -0.074175 0.722000 34 39 42
-0.865506 -0.161989 1.618000 38 39 36
-0.719463 -0.162490 1.623000 36 38 48
-0.721257 -0.205340 2.051000 22 26 25
-0.575707 -0.221659 2.214000 27 27 27
-0.413083 -0.245587 2.453000 47 37 35
-0.206506 -0.269315 2.690000 141 128 127
0.294040 -0.069982 0.699000 115 119 118
0.323767 -0.063274 0.632000 54 65 83
0.471773 -0.075588 0.755000 30 31 28
0.523758 -0.073186 0.731000 87 84 81
0.576194 -0.071383 0.713000 29 33 38
-0.825690 -0.158241 1.623000 41 41 53
-0.712427 -0.166528 1.708000 33 31 37
-0.683510 -0.204748 2.100000 27 27 27
-0.521485 -0.217423 2.230000 31 31 31
-0.357538 -0.245113 2.514000 49 41 39
0.761284 -0.290255 2.977000 196 199 202
0.296250 -0.066592 0.683000 133 132 124
0.328362 -0.060937 0.625000 53 63 65
0.484335 -0.071954 0.738000 29 27 28
0.540740 -0.070492 0.723000 89 101 96
0.594396 -0.069029 0.708000 38 40 50
-0.763843 -0.153517 1.618000 36 33 42
-0.668467 -0.166706 1.757000 29 29 29
-0.621559 -0.204184 2.152000 29 29 29
-0.472485 -0.227335 2.396000 61 45 33
-0.279117 -0.250865 2.644000 110 103 93
0.285605 -0.073058 0.770000 190 196 195
0.305743 -0.062716 0.661000 128 129 126
0.336940 -0.057688 0.608000 55 76 85
0.500469 -0.070117 0.739000 30 30 30
0.551270 -0.068030 0.717000 48 57 55
-0.880110 -0.148174 1.606000 47 46 43
-0.710587 -0.143653 1.557000 29 32 35
-0.673696 -0.170410 1.847000 24 28 27
-0.591852 -0.199934 2.167000 27 28 25
-0.441745 -0.224568 2.434000 51 37 33
-0.232553 -0.238776 2.588000 251 241 246
0.288039 -0.068275 0.740000 176 180 179
0.312567 -0.059971 0.650000 101 109 111
0.342930 -0.055266 0.599000 56 75 89
0.508072 -0.067906 0.736000 31 31 32
0.559092 -0.065968 0.715000 45 51 50
-0.867592 -0.144687 1.614000 39 39 39
-0.717916 -0.144328 1.610000 28 32 32
-0.698639 -0.176780 1.972000 26 26 26
-0.575199 -0.196322 2.190000 31 31 25
-0.413006 -0.216492 2.415000 40 36 36
-0.201164 -0.227160 2.534000 147 139 137
0.289941 -0.065889 0.735000 126 125 129
0.314512 -0.058000 0.647000 50 52 57
0.343755 -0.053339 0.595000 43 47 61
0.505457 -0.065889 0.735000 24 28 27
0.554882 -0.063827 0.712000 60 66 65
-0.880110 -0.139765 1.606000 47 45 45
-0.708762 -0.135153 1.553000 29 33 33
-0.667860 -0.159346 1.831000 26 26 26
-0.587755 -0.187282 2.152000 32 32 26
-0.438296 -0.210170 2.415000 43 37 35
-0.227700 -0.220526 2.534000 192 176 179
0.290137 -0.066663 0.766000 183 187 186
0.309053 -0.057177 0.657000 123 128 124
0.338343 -0.052390 0.602000 62 71 89
0.375202 -0.049953 0.574000 25 31 30
0.541486 -0.062137 0.714000 93 92 89
-0.900910 -0.132437 1.569000 82 80 80
-0.780787 -0.136574 1.618000 31 31 32
-0.662238 -0.142989 1.694000 27 27 28
-0.622246 -0.175486 2.079000 35 32 29
-0.488023 -0.198361 2.350000 52 43 30
-0.300307 -0.218450 2.588000 80 77 74
0.269168 -0.067443 0.799000 199 202 205
0.295673 -0.058242 0.690000 127 124 121
0.324569 -0.052671 0.624000 58 67 85
0.353605 -0.048788 0.578000 32 31 28
0.515420 -0.060943 0.722000 30 30 30
0.566272 -0.059339 0.703000 48 51 54
-0.863932 -0.132746 1.623000 36 36 36
-0.728435 -0.135200 1.653000 26 30 30
-0.713444 -0.167180 2.044000 27 27 27
-0.561931 -0.178549 2.183000 40 35 25
-0.401853 -0.198261 2.424000 39 38 35
-0.182631 -0.201451 2.463000 201 202 210
0.293287 -0.062897 0.769000 178 182 181
0.309827 -0.053573 0.655000 118 122 122
0.338225 -0.048993 0.599000 41 44 60
0.375393 -0.046784 0.572000 24 30 30
0.550985 -0.057826 0.707000 93 97 96
-0.892723 -0.127151 1.606000 57 53 54
-0.720959 -0.122955 1.553000 31 31 31
-0.645725 -0.137206 1.733000 23 27 27
-0.596228 -0.168005 2.122000 38 34 27
-0.450069 -0.188194 2.377000 44 37 32
-0.241642 -0.195794 2.473000 255 253 254
0.280969 -0.062626 0.791000 195 195 195
0.301616 -0.053442 0.675000 89 85 96
0.329543 -0.048454 0.612000 55 75 87
0.359157 -0.045128 0.570000 25 25 25
0.523193 -0.056371 0.712000 33 31 32
0.572732 -0.054867 0.693000 41 50 48
-0.842926 -0.125550 1.640000 34 34 34
-0.727706 -0.131904 1.723000 26 30 29
-0.692191 -0.160229 2.093000 35 33 27
-0.529336 -0.169492 2.214000 44 40 28
-0.367605 -0.190851 2.493000 49 48 45
0.757287 -0.229052 2.992000 171 176 172
0.296828 -0.056115 0.733000 123 121 121
0.316819 -0.048842 0.638000 41 43 53
0.345869 -0.045014 0.588000 97 96 88
0.505311 -0.056038 0.732000 21 25 30
0.550490 -0.053895 0.704000 79 75 81
-0.896083 -0.118077 1.597000 61 57 57
-0.734725 -0.115711 1.565000 31 32 29
-0.647243 -0.126654 1.713000 23 27 27
-0.605335 -0.156376 2.115000 40 35 25
-0.452008 -0.171755 2.323000 44 37 32
-0.252532 -0.181367 2.453000 135 123 119
0.282324 -0.058336 0.789000 193 193 193
0.303383 -0.049907 0.675000 83 76 85
0.330063 -0.045101 0.610000 54 72 89
0.359384 -0.041996 0.568000 27 25 26
0.523193 -0.052643 0.712000 29 28 32
0.569426 -0.050942 0.689000 50 54 53
-0.845153 -0.116677 1.636000 35 34 31
-0.724142 -0.121527 1.704000 24 28 28
-0.705003 -0.150839 2.115000 37 32 27
-0.529332 -0.156188 2.190000 46 39 29
-0.375632 -0.178511 2.503000 49 46 43
-0.166187 -0.212316 2.977000 183 172 179
0.298932 -0.052990 0.743000 131 129 130
0.315642 -0.045573 0.639000 36 39 47
0.344915 -0.042007 0.589000 97 99 88
0.377892 -0.039796 0.558000 26 26 27
0.548647 -0.050208 0.704000 41 40 44
-0.890419 -0.107517 1.565000 80 72 70
-0.754654 -0.108616 1.581000 26 30 29
-0.657225 -0.117066 1.704000 25 25 25
-0.621946 -0.145302 2.115000 39 34 24
-0.454868 -0.154370 2.247000 41 34 29
-0.270690 -0.167836 2.443000 104 101 98
0.282034 -0.054548 0.794000 184 188 187
0.304744 -0.046854 0.682000 60 49 51
0.329005 -0.041976 0.611000 54 71 90
0.356007 -0.038816 0.565000 25 25 25
0.525441 -0.048777 0.710000 21 26 29
0.569707 -0.047060 0.685000 50 54 53
-0.853282 -0.107516 1.627000 36 35 32
-0.729302 -0.111349 1.685000 24 28 28
-0.716497 -0.138774 2.100000 33 30 27
-0.540792 -0.143201 2.167000 42 36 29
-0.393712 -0.164744 2.493000 45 41 41
-0.160701 -0.160184 2.424000 179 172 174
0.299335 -0.049165 0.744000 121 119 119
0.316136 -0.042293 0.640000 35 38 46
0.343744 -0.038791 0.587000 100 101 88
0.375183 -0.036610 0.554000 24 24 25
0.547868 -0.046456 0.703000 31 34 37
-0.896936 -0.097799 1.541000 171 175 175
-0.787609 -0.101924 1.606000 31 32 29
-0.675543 -0.107509 1.694000 27 25 25
-0.651782 -0.134672 2.122000 38 32 25
-0.471997 -0.138987 2.190000 38 32 30
-0.308864 -0.158217 2.493000 79 74 69
0.279167 -0.051787 0.816000 186 186 186
0.303624 -0.044425 0.700000 83 81 81
0.326260 -0.039412 0.621000 54 67 86
0.349845 -0.035984 0.567000 26 28 22
0.513011 -0.045441 0.716000 23 26 29
0.557607 -0.043791 0.690000 73 71 71
-0.891244 -0.096198 1.581000 66 58 56
-0.742599 -0.095712 1.573000 29 29 29
-0.655532 -0.104839 1.723000 27 27 27
-0.610872 -0.128690 2.115000 36 31 26
-0.439750 -0.135688 2.230000 40 36 36
-0.248081 -0.142989 2.350000 132 122 120
0.286455 -0.048008 0.789000 178 178 178
0.308281 -0.041254 0.678000 49 43 41
0.331618 -0.036934 0.607000 57 73 90
0.357255 -0.034074 0.560000 24 25 22
0.524701 -0.043140 0.709000 18 26 28
0.569707 -0.041680 0.685000 57 63 62
-0.880928 -0.094505 1.623000 41 40 37
-0.704240 -0.090895 1.561000 29 29 29
-0.676248 -0.109528 1.881000 23 27 26
-0.570593 -0.124027 2.130000 35 29 27
-0.411022 -0.135789 2.332000 43 39 39
-0.192938 -0.132761 2.280000 251 255 254
0.291901 -0.043963 0.755000 150 150 151
0.313257 -0.038140 0.655000 73 70 74
0.338512 -0.034588 0.594000 52 54 59
0.365157 -0.032142 0.552000 17 20 23
0.538665 -0.040935 0.703000 27 30 33
-0.942146 -0.086141 1.549000 177 181 180
-0.831721 -0.089533 1.610000 33 34 31
-0.713943 -0.093426 1.680000 23 27 27
-0.702670 -0.117227 2.108000 33 31 25
-0.516521 -0.118840 2.137000 34 30 30
-0.366628 -0.135856 2.443000 48 46 46
0.273092 -0.046157 0.830000 162 153 154
0.301191 -0.039817 0.716000 104 108 107
0.323254 -0.035090 0.631000 54 66 81
0.346046 -0.031865 0.573000 41 37 37
0.379771 -0.030363 0.546000 17 21 20
0.553994 -0.038371 0.690000 36 36 36
-0.901375 -0.083569 1.577000 89 80 81
-0.762632 -0.084205 1.589000 32 32 32
-0.669064 -0.091306 1.723000 24 24 24
-0.620957 -0.110913 2.093000 31 28 25
-0.453984 -0.117325 2.214000 34 32 32
-0.266538 -0.124532 2.350000 108 105 102
0.285366 -0.041652 0.786000 171 172 169
0.310100 -0.036141 0.682000 53 47 45
0.332711 -0.032272 0.609000 59 74 88
0.354703 -0.029464 0.556000 23 24 21
0.524687 -0.037307 0.704000 25 24 28
0.574130 -0.036353 0.686000 61 67 67
-0.869742 -0.081506 1.618000 43 40 37
-0.712119 -0.080448 1.597000 24 28 27
-0.696513 -0.099036 1.966000 31 30 27
-0.553662 -0.106189 2.108000 30 30 31
-0.394365 -0.116163 2.306000 39 37 37
-0.181635 -0.115257 2.288000 251 255 252
0.293390 -0.036975 0.734000 116 117 114
0.320357 -0.032844 0.652000 48 51 59
0.340458 -0.029419 0.584000 107 109 91
0.368335 -0.027504 0.546000 17 21 21
0.541367 -0.035111 0.697000 22 28 28
-0.940270 -0.075121 1.573000 149 153 153
-0.808282 -0.076267 1.597000 37 37 37
-0.704225 -0.081138 1.699000 26 27 24
-0.673492 -0.099620 2.086000 33 31 25
-0.487437 -0.100671 2.108000 33 31 31
-0.337136 -0.115332 2.415000 56 54 54
0.277856 -0.038492 0.806000 85 77 75
0.305456 -0.033429 0.700000 43 39 39
0.329470 -0.029800 0.624000 53 65 80
0.348231 -0.026839 0.562000 28 26 26
0.387636 -0.026027 0.545000 17 20 23
0.554190 -0.032856 0.688000 28 32 32
-0.904074 -0.071725 1.589000 77 70 65
-0.762291 -0.072086 1.597000 30 30 30
-0.671882 -0.078631 1.742000 26 26 26
-0.605185 -0.092895 2.058000 26 26 26
-0.453046 -0.101020 2.238000 31 31 31
-0.255510 -0.104089 2.306000 121 115 113
0.286350 -0.034125 0.756000 138 140 134
0.314228 -0.030152 0.668000 59 60 57
0.337219 -0.027083 0.600000 46 43 52
0.360168 -0.024871 0.551000 17 21 21
0.523538 -0.031597 0.700000 25 24 28
0.577606 -0.031055 0.688000 60 57 61
-0.863366 -0.068628 1.614000 41 39 39
-0.715474 -0.068628 1.614000 26 26 27
-0.700157 -0.084658 1.991000 35 29 27
-0.546063 -0.089293 2.100000 27 30 33
-0.382603 -0.096606 2.272000 36 34 35
-0.178332 -0.098775 2.323000 251 255 252
0.300526 -0.030189 0.710000 61 53 51
0.325936 -0.026915 0.633000 56 69 82
0.346333 -0.024279 0.571000 41 37 38
0.379804 -0.023131 0.544000 19 19 19
0.549787 -0.029211 0.687000 28 31 34
-0.926696 -0.063245 1.585000 173 177 177
-0.791814 -0.064083 1.606000 30 30 30
-0.693626 -0.068951 1.728000 22 26 25
-0.633175 -0.081560 2.044000 29 29 29
-0.472713 -0.086468 2.167000 30 30 30
-0.297300 -0.093770 2.350000 72 72 72
0.284632 -0.030406 0.762000 75 68 63
0.311660 -0.026735 0.670000 107 100 90
0.336861 -0.024141 0.605000 49 56 72
0.357932 -0.022026 0.552000 20 19 23
0.522790 -0.027892 0.699000 22 18 24
0.577606 -0.027453 0.688000 43 42 46
-0.894947 -0.060028 1.610000 54 53 45
-0.728387 -0.058499 1.569000 29 29 29
-0.660630 -0.066105 1.773000 29 29 29
-0.580212 -0.076992 2.065000 27 27 27
-0.428484 -0.084374 2.263000 33 31 32
-0.222002 -0.084710 2.272000 251 255 254
0.294264 -0.026919 0.722000 55 46 41
0.321484 -0.024011 0.644000 57 57 51
0.343863 -0.021699 0.582000 111 111 100
0.370576 -0.020245 0.543000 15 19 19
0.536707 -0.025763 0.691000 25 29 34
-1.040702 -0.056402 1.627000 180 180 180
-0.880268 -0.055951 1.614000 43 41 35
-0.702881 -0.053698 1.549000 29 29 29
-0.668860 -0.064029 1.847000 31 29 23
-0.566161 -0.072556 2.093000 29 29 30
-0.400314 -0.077583 2.238000 33 31 31
-0.199605 -0.079316 2.288000 240 238 239
0.297644 -0.024682 0.712000 49 42 37
0.324151 -0.022048 0.636000 81 79 73
0.347553 -0.020037 0.578000 91 90 82
0.375570 -0.018789 0.542000 17 20 23
0.541803 -0.023781 0.686000 27 30 33
-1.033894 -0.052014 1.623000 178 182 181
-0.880268 -0.051726 1.614000 44 42 36
-0.701066 -0.049515 1.545000 29 29 29
-0.667050 -0.059033 1.842000 31 29 23
-0.568055 -0.067301 2.100000 27 27 28
-0.400314 -0.071724 2.238000 32 30 30
-0.199605 -0.073326 2.288000 185 177 182
0.296196 -0.022850 0.713000 51 44 39
0.321472 -0.020319 0.634000 95 91 77
0.347237 -0.018588 0.580000 107 107 96
0.374151 -0.017370 0.542000 17 21 21
0.540007 -0.021985 0.686000 26 29 32
-1.098697 -0.049737 1.690000 182 183 180
-0.894136 -0.047118 1.601000 55 54 46
-0.732495 -0.046176 1.569000 25 25 25
-0.663020 -0.052003 1.767000 23 27 26
-0.593559 -0.061597 2.093000 27 27 28
-0.432873 -0.066365 2.255000 30 29 33
-0.228753 -0.067101 2.280000 150 142 153
0.283008 -0.022455 0.763000 54 48 41
0.306668 -0.019512 0.663000 55 46 41
0.336940 -0.017894 0.608000 86 92 85
0.354549 -0.016157 0.549000 22 23 20
0.400430 -0.015981 0.543000 20 20 20
0.573294 -0.020160 0.685000 33 33 34
-0.938533 -0.042283 1.577000 176 180 179
-0.810646 -0.043168 1.610000 31 31 31
-0.709662 -0.046197 1.723000 23 24 21
-0.650417 -0.054456 2.031000 26 26 27
-0.499064 -0.058531 2.183000 29 29 30
-0.316978 -0.062043 2.314000 47 47 47
0.170925 -0.077192 2.879000 34 34 34
0.295568 -0.019198 0.716000 46 41 36
0.317794 -0.016892 0.630000 77 61 56
0.348103 -0.015658 0.584000 104 100 93
0.371356 -0.014479 0.540000 18 18 19
0.535284 -0.018232 0.680000 26 29 32
-1.073221 -0.040428 1.671000 180 181 178
-0.884314 -0.038856 1.606000 49 46 43
-0.707320 -0.037283 1.541000 26 27 24
-0.649142 -0.042751 1.767000 31 30 27
-0.589253 -0.051703 2.137000 25 25 25
-0.413689 -0.054364 2.247000 29 29 30
-0.213250 -0.055792 2.306000 152 149 153
0.254292 -0.067768 2.801000 31 29 30
0.301173 -0.016500 0.682000 40 34 32
0.330071 -0.014976 0.619000 148 134 117
0.350135 -0.013500 0.558000 26 24 24
0.386883 -0.013016 0.538000 15 20 16
0.555010 -0.016404 0.678000 26 32 31
-0.968908 -0.034371 1.593000 177 181 180
-0.829655 -0.034651 1.606000 34 32 32
-0.722017 -0.036658 1.699000 23 23 23
-0.690670 -0.044706 2.072000 25 25 26
-0.529332 -0.047252 2.190000 27 27 28
-0.347269 -0.049927 2.314000 38 38 39
-0.146280 -0.054005 2.503000 160 152 150
0.283885 -0.016398 0.760000 47 43 36
0.305613 -0.014176 0.657000 42 34 32
0.335748 -0.013010 0.603000 117 110 87
0.354689 -0.011802 0.547000 26 22 22
0.398891 -0.011630 0.539000 17 21 20
-1.224424 -0.029821 1.573000 175 176 173
-1.005293 -0.030674 1.618000 181 182 179
-0.854915 -0.030598 1.614000 37 34 31
-0.710965 -0.030769 1.623000 24 25 22
-0.717793 -0.039281 2.072000 27 26 23
-0.560037 -0.041670 2.198000 27 27 28
-0.376254 -0.043717 2.306000 36 37 34
-0.176898 -0.046883 2.473000 149 146 143
0.212350 -0.050125 2.644000 31 29 30
0.294600 -0.013195 0.696000 77 74 57
0.319757 -0.011773 0.621000 59 47 43
0.352399 -0.011015 0.581000 45 41 41
0.375615 -0.010199 0.538000 17 21 21
0.531879 -0.012683 0.669000 24 28 28
-1.099597 -0.027092 1.658000 183 182 179
-0.908234 -0.025964 1.589000 87 78 73
-0.754953 -0.025703 1.573000 27 32 28
-0.674501 -0.028383 1.737000 26 24 24
-0.626357 -0.034804 2.130000 25 25 26
-0.459929 -0.037125 2.272000 26 26 27
-0.258391 -0.038105 2.332000 66 64 65
0.012642 -0.047043 2.879000 127 123 123
0.286350 -0.012353 0.756000 42 41 33
0.307642 -0.010686 0.654000 42 37 32
0.334971 -0.009739 0.596000 112 97 82
0.356246 -0.008905 0.545000 20 21 18
0.400968 -0.008791 0.538000 18 24 24
-1.243951 -0.022381 1.631000 173 178 174
-0.962979 -0.021914 1.597000 180 180 180
-0.823291 -0.022092 1.610000 31 30 27
-0.721096 -0.023574 1.718000 24 24 24
-0.698851 -0.029228 2.130000 26 26 26
-0.537255 -0.031176 2.272000 26 30 30
-0.340366 -0.032247 2.350000 38 38 38
-0.135408 -0.034923 2.545000 147 139 137
0.188323 -0.035664 2.599000 33 31 32
0.290201 -0.009647 0.703000 61 59 47
0.314263 -0.008549 0.623000 132 120 98
0.349295 -0.008041 0.586000 98 98 87
0.369981 -0.007382 0.538000 19 19 19
0.519382 -0.009084 0.662000 22 28 27
-1.101202 -0.018510 1.667000 181 181 181
-0.899522 -0.017555 1.581000 74 69 64
-0.651763 -0.019288 1.737000 29 27 21
-0.626573 -0.024762 2.230000 23 27 27
-0.438140 -0.025695 2.314000 31 31 32
-0.232262 -0.026394 2.377000 119 116 120
-0.009787 -0.031380 2.826000 125 121 122
0.277185 -0.008417 0.758000 40 38 32
0.304111 -0.007384 0.665000 34 27 22
0.329914 -0.006673 0.601000 56 45 39
0.353596 -0.006129 0.552000 20 24 23
0.389532 -0.005907 0.532000 17 21 21
0.556400 -0.007429 0.669000 41 45 45
-0.958798 -0.013552 1.597000 179 180 177
-0.823146 -0.013730 1.618000 26 31 27
-0.720770 -0.014664 1.728000 20 24 23
-0.693971 -0.018389 2.167000 25 25 25
-0.523068 -0.019416 2.288000 23 27 27
-0.325608 -0.020171 2.377000 40 40 40
-0.114467 -0.021419 2.524000 133 130 127
0.187526 -0.021962 2.588000 33 31 31
0.287724 -0.005915 0.697000 87 85 71
0.314263 -0.005287 0.623000 64 52 43
0.349295 -0.004973 0.586000 99 99 88
0.369981 -0.004565 0.538000 19 19 19
0.516243 -0.005584 0.658000 26 32 32
-1.095095 -0.009805 1.671000 181 181 181
-0.891244 -0.009277 1.581000 61 56 51
-0.758178 -0.009424 1.606000 24 28 27
-0.660858 -0.010193 1.737000 28 26 20
-0.634680 -0.013132 2.238000 22 26 25
-0.451109 -0.013790 2.350000 27 27 28
-0.239388 -0.014001 2.386000 98 96 102
-0.024253 -0.016360 2.788000 122 118 118
0.284839 -0.016506 2.813000 25 25 26
0.306772 -0.003914 0.667000 33 31 25
0.328729 -0.003497 0.596000 53 45 38
0.354549 -0.003221 0.549000 24 23 20
0.391580 -0.003116 0.531000 19 23 22
-1.208319 -0.005632 1.733000 175 177 171
-0.967160 -0.005190 1.597000 180 181 178
-0.842926 -0.005330 1.640000 28 33 29
-0.731929 -0.005632 1.733000 20 24 23
-0.712803 -0.007117 2.190000 26 26 26
-0.537153 -0.007465 2.297000 26 30 30
-0.342036 -0.007816 2.405000 39 39 39
-0.129808 -0.008339 2.566000 128 124 124
0.152662 -0.008742 2.690000 33 31 31
0.286899 -0.002259 0.695000 64 53 47
0.314767 -0.002028 0.624000 51 45 38
0.349295 -0.001904 0.586000 99 99 88
0.369981 -0.001748 0.538000 18 18 18
0.514674 -0.002132 0.656000 31 35 35
-1.070519 -0.001028 1.627000 177 181 180
-0.895383 -0.000999 1.581000 68 63 58
-0.772351 -0.001028 1.627000 24 28 27
-0.673067 -0.001110 1.757000 29 27 21
-0.643115 -0.001420 2.247000 23 23 23
-0.460764 -0.001496 2.368000 23 27 27
-0.243781 -0.001496 2.368000 93 89 95
-0.030986 -0.001730 2.738000 114 112 112
0.238949 -0.001663 2.632000 25 25 25
0.303383 -0.000427 0.675000 38 34 27
0.324652 -0.000379 0.600000 118 107 87
0.356220 -0.000356 0.563000 24 25 22
0.383905 -0.000335 0.530000 19 19 20
0.542907 -0.000416 0.659000 84 94 96
-0.986348 0.003180 1.601000 179 180 177
-0.864820 0.003275 1.649000 30 30 30
-0.735362 0.003375 1.699000 23 23 23
-0.733385 0.004336 2.183000 24 24 24
-0.563406 0.004580 2.306000 23 27 26
-0.370123 0.004814 2.424000 33 33 33
-0.156008 0.005075 2.555000 116 113 117
0.097875 0.005857 2.949000 41 38 35
0.288035 0.001480 0.745000 46 48 37
0.314491 0.001299 0.654000 44 38 31
0.334915 0.001162 0.585000 49 38 32
0.359961 0.001077 0.542000 19 20 17
0.405091 0.001065 0.536000 20 26 25
-1.063815 0.007242 1.573000 176 181 177
-0.903661 0.007279 1.581000 84 78 71
-0.782790 0.007509 1.631000 24 28 27
-0.684209 0.008113 1.762000 28 27 24
-0.645263 0.010194 2.214000 20 24 23
-0.471365 0.010861 2.359000 22 26 26
-0.254233 0.010820 2.350000 62 60 61
-0.044528 0.012385 2.690000 108 108 109
0.196779 0.012068 2.621000 29 27 27
0.294816 0.003168 0.688000 38 33 28
0.318848 0.002822 0.613000 52 45 40
0.358500 0.002698 0.586000 33 32 29
0.373508 0.002445 0.531000 17 20 23
0.527499 0.003025 0.657000 90 99 97
-1.010451 0.011599 1.606000 177 182 178
-0.883718 0.011873 1.644000 36 36 30
-0.716132 0.011599 1.606000 23 27 26
-0.735783 0.015224 2.108000 25 23 23
-0.593592 0.016654 2.306000 22 26 25
-0.408319 0.017788 2.463000 27 31 30
-0.186413 0.018157 2.514000 108 107 111
0.048965 0.020229 2.801000 63 54 56
0.280476 0.005539 0.767000 66 65 62
0.309599 0.004889 0.677000 100 99 82
0.326071 0.004290 0.594000 142 132 103
0.355518 0.004008 0.555000 23 23 23
0.387336 0.003821 0.529000 19 23 22
0.549746 0.004774 0.661000 78 91 90
-0.945052 0.015557 1.581000 175 179 178
-0.836625 0.016266 1.653000 29 30 27
-0.714173 0.016955 1.723000 25 25 25
-0.690838 0.021403 2.175000 24 24 24
-0.521146 0.022692 2.306000 26 26 27
-0.320594 0.023479 2.386000 34 32 33
-0.117004 0.026943 2.738000 106 103 107
0.132121 0.026588 2.702000 33 31 32
0.293790 0.007233 0.735000 60 54 47
0.318391 0.006376 0.648000 85 86 73
0.342207 0.005776 0.587000 109 106 96
0.362264 0.005284 0.537000 15 20 16
0.409171 0.005255 0.534000 33 37 36
-0.971726 0.018326 1.471000 177 182 178
-0.899914 0.019796 1.589000 67 62 57
-0.768079 0.020158 1.618000 26 26 26
-0.683027 0.022213 1.783000 28 25 22
-0.637156 0.027483 2.206000 20 24 23
-0.468738 0.029613 2.377000 26 24 24
-0.250931 0.029613 2.377000 81 85 90
-0.037820 0.033812 2.714000 98 96 97
0.204496 0.032790 2.632000 28 26 27
0.297563 0.008758 0.703000 75 74 66
0.317183 0.007674 0.616000 45 40 35
0.360284 0.007400 0.594000 38 34 34
0.368633 0.006578 0.528000 16 19 22
0.522464 0.008160 0.655000 136 142 135
-0.993089 0.023896 1.585000 179 179 179
-0.882089 0.024861 1.649000 36 35 32
-0.715474 0.024333 1.614000 22 26 26
-0.720774 0.031133 2.065000 24 24 24
-0.593592 0.034766 2.306000 21 25 25
-0.411634 0.037435 2.483000 29 27 27
-0.190269 0.038686 2.566000 98 95 99
0.048737 0.042033 2.788000 58 46 51
0.278831 0.011579 0.768000 67 66 63
0.311919 0.010342 0.686000 104 99 82
0.326523 0.008925 0.592000 74 59 51
0.355041 0.008322 0.552000 22 24 18
0.387986 0.007960 0.528000 17 23 22
0.548083 0.009935 0.659000 122 132 134
-0.930845 0.028046 1.585000 172 176 175
-0.819314 0.029249 1.653000 27 27 28
-0.696130 0.030487 1.723000 30 27 24
-0.667579 0.037813 2.137000 22 26 26
-0.510838 0.040945 2.314000 25 25 26
-0.306939 0.042059 2.377000 35 33 33
-0.109005 0.051438 2.907000 93 90 94
0.143129 0.046784 2.644000 31 29 30
0.291153 0.013235 0.748000 58 56 42
0.320742 0.011802 0.667000 106 97 84
0.340289 0.010422 0.589000 120 108 91
0.359452 0.009502 0.537000 13 17 16
0.402570 0.009360 0.529000 32 38 37
-0.970107 0.029595 1.457000 177 182 178
-0.896083 0.032439 1.597000 54 53 50
-0.751626 0.032520 1.601000 23 27 27
-0.669913 0.036014 1.773000 24 24 24
-0.623336 0.044647 2.198000 20 24 24
-0.461667 0.048851 2.405000 25 25 25
-0.244204 0.049440 2.434000 79 80 88
-0.023505 0.054884 2.702000 93 89 90
0.219272 0.053706 2.644000 25 25 26
0.301825 0.014666 0.722000 93 87 75
0.317839 0.012350 0.608000 51 45 33
0.360034 0.011903 0.586000 27 27 27
0.370662 0.010664 0.525000 16 21 17
0.525192 0.013244 0.652000 130 139 138
-0.959892 0.036345 1.585000 178 179 176
-0.852177 0.038019 1.658000 30 31 28
-0.713768 0.038752 1.690000 20 24 23
-0.680616 0.047191 2.058000 21 25 25
-0.551332 0.052878 2.306000 23 23 23
-0.354629 0.055148 2.405000 30 30 30
-0.154241 0.063357 2.763000 85 88 91
0.099831 0.063930 2.788000 32 30 31
0.278064 0.017312 0.755000 58 60 54
0.318730 0.015891 0.693000 103 94 76
0.334121 0.013506 0.589000 76 60 55
0.356464 0.012405 0.541000 19 19 19
0.395529 0.012084 0.527000 29 36 32
-1.004301 0.037939 1.485000 176 181 177
-0.922546 0.040494 1.585000 170 176 176
-0.808697 0.042129 1.649000 24 28 27
-0.689102 0.044148 1.728000 29 27 21
-0.638575 0.053115 2.079000 22 26 26
-0.500661 0.059349 2.323000 22 22 22
-0.299200 0.061700 2.415000 34 34 34
-0.092042 0.072890 2.853000 89 86 90
0.154955 0.066681 2.610000 27 25 26
0.291913 0.018906 0.740000 65 62 52
0.319407 0.015304 0.599000 62 57 40
0.355548 0.014537 0.569000 23 25 19
0.376160 0.013413 0.525000 16 20 20
0.527795 0.016632 0.651000 140 151 149
-0.966475 0.044757 1.589000 178 179 176
-0.858584 0.046813 1.662000 29 30 27
-0.718193 0.047601 1.690000 20 24 23
-0.681337 0.057572 2.044000 21 25 24
-0.557369 0.064952 2.306000 22 22 22
-0.362426 0.068022 2.415000 33 31 25
-0.160013 0.077120 2.738000 80 82 87
0.093362 0.079232 2.813000 31 29 29
0.273894 0.021097 0.749000 63 61 61
0.320117 0.019717 0.700000 101 96 79
0.351544 0.016759 0.595000 132 121 110
0.361704 0.014928 0.530000 17 17 17
0.407172 0.014816 0.526000 121 127 127
-0.949881 0.045161 1.467000 177 181 180
-0.887359 0.050086 1.627000 39 39 33
-0.715586 0.048547 1.577000 22 26 25
-0.664877 0.056520 1.836000 19 23 23
-0.596728 0.067911 2.206000 16 20 20
-0.438771 0.075514 2.453000 33 32 24
-0.214872 0.075822 2.463000 75 72 81
0.011509 0.080686 2.621000 81 78 82
0.277792 0.089060 2.893000 20 24 23
0.303066 0.022042 0.716000 90 84 70
0.321406 0.018286 0.594000 57 53 46
0.352424 0.017147 0.557000 23 24 21
0.380284 0.016162 0.525000 17 23 22
0.532148 0.019948 0.648000 140 148 150
-0.934995 0.052943 1.585000 177 181 181
-0.828126 0.055515 1.662000 24 29 25
-0.692914 0.056918 1.704000 26 26 20
-0.646083 0.068509 2.051000 19 23 23
-0.518906 0.077594 2.323000 24 25 22
-0.319354 0.080968 2.424000 37 33 33
-0.112364 0.093561 2.801000 79 75 81
0.137392 0.089085 2.667000 26 24 24
0.279176 0.024451 0.732000 49 41 39
0.373375 0.026221 0.785000 112 103 90
0.344152 0.019808 0.593000 55 46 41
0.359606 0.017737 0.531000 18 18 19
0.403649 0.017536 0.525000 79 69 74
-0.962823 0.053346 1.481000 179 179 179
-0.889540 0.058750 1.631000 39 39 33
-0.717402 0.056949 1.581000 21 25 24
-0.664877 0.066134 1.836000 19 23 23
-0.588342 0.078345 2.175000 16 20 20
-0.438771 0.088358 2.453000 38 35 25
-0.214872 0.088719 2.463000 73 75 80
0.011610 0.095238 2.644000 77 76 80
0.277792 0.104208 2.893000 20 24 23
0.303489 0.025827 0.717000 85 81 69
0.319312 0.021360 0.593000 80 77 67
0.351341 0.019919 0.553000 22 23 20
0.380931 0.018875 0.524000 19 25 24
0.528902 0.023125 0.642000 97 103 110
-0.894947 0.062208 1.610000 47 46 43
-0.751135 0.062517 1.618000 22 26 25
-0.652805 0.067695 1.752000 20 20 21
-0.596228 0.081991 2.122000 19 19 19
-0.458968 0.093660 2.424000 36 32 25
-0.239688 0.094781 2.453000 66 70 75
-0.016285 0.103474 2.678000 75 73 79
0.235262 0.106256 2.750000 20 24 24
0.299519 0.027858 0.721000 83 80 70
0.378069 0.028515 0.738000 111 101 85
0.351174 0.021715 0.562000 26 26 20
0.374727 0.020208 0.523000 18 18 18
0.522228 0.024729 0.640000 88 88 89
-0.894947 0.066423 1.610000 49 46 43
-0.753456 0.066960 1.623000 21 27 26
-0.654668 0.072488 1.757000 18 17 21
-0.594261 0.087258 2.115000 20 19 16
-0.457264 0.099635 2.415000 35 30 25
-0.240665 0.101615 2.463000 67 71 76
-0.016504 0.111971 2.714000 69 70 78
0.236375 0.113992 2.763000 23 23 24
0.298044 0.029787 0.722000 79 77 71
0.376740 0.030654 0.743000 105 96 83
0.352096 0.022402 0.543000 18 19 16
0.386310 0.021536 0.522000 22 28 28
-0.967433 0.069190 1.577000 178 179 176
-0.867287 0.072920 1.662000 29 28 25
-0.730913 0.074543 1.699000 24 25 22
-0.696779 0.090294 2.058000 16 19 22
-0.556850 0.098937 2.255000 18 18 19
-0.380973 0.107625 2.453000 39 34 29
-0.168364 0.116005 2.644000 72 76 81
0.076201 0.119602 2.726000 34 31 35
0.714521 0.130615 2.977000 84 88 88
0.315191 0.031502 0.718000 92 87 82
0.385227 0.031853 0.726000 98 92 78
0.364483 0.023078 0.526000 14 19 22
0.411112 0.022990 0.524000 95 101 100
-0.920714 0.073877 1.589000 166 170 170
-0.817551 0.077922 1.676000 21 28 24
-0.684578 0.080339 1.728000 22 22 23
-0.624605 0.095357 2.051000 17 21 21
-0.496496 0.108421 2.332000 33 32 29
-0.298699 0.114512 2.463000 31 31 31
-0.081905 0.128459 2.763000 69 73 78
0.168235 0.126181 2.714000 24 22 22
0.272306 0.033893 0.729000 48 45 42
0.351199 0.035102 0.755000 96 87 76
0.396438 0.033103 0.712000 90 88 74
0.366539 0.024409 0.525000 14 20 19
0.413855 0.024362 0.524000 85 91 90
-0.918861 0.078233 1.593000 173 171 172
-0.817530 0.082752 1.685000 23 29 22
-0.683596 0.085305 1.737000 17 20 23
-0.619235 0.100726 2.051000 16 20 20
-0.488498 0.114084 2.323000 36 34 28
-0.291064 0.120469 2.453000 33 33 33
-0.074320 0.135055 2.750000 70 72 77
0.178506 0.135693 2.763000 25 23 23
0.264205 0.035998 0.733000 48 44 44
0.329110 0.035753 0.728000 92 88 81
0.388749 0.035114 0.715000 98 94 82
0.355436 0.026078 0.531000 17 16 13
0.395721 0.025538 0.520000 32 32 33
-0.948055 0.082404 1.593000 172 176 176
-0.848409 0.087163 1.685000 22 26 25
-0.715429 0.089853 1.737000 19 19 19
-0.659064 0.106458 2.058000 19 23 23
-0.527183 0.119287 2.306000 28 26 26
-0.340128 0.128443 2.483000 29 30 27
-0.122540 0.139771 2.702000 69 72 80
0.125047 0.139771 2.702000 26 24 25
0.628788 0.153997 2.977000 84 83 87
0.297385 0.037503 0.725000 73 73 73
0.381381 0.039314 0.760000 96 92 80
0.405918 0.035382 0.684000 39 39 33
0.372700 0.027106 0.524000 18 23 26
0.507526 0.032382 0.626000 82 82 83
-0.888519 0.087281 1.606000 47 43 43
-0.752900 0.088640 1.631000 22 22 23
-0.671527 0.098639 1.815000 20 18 19
-0.576754 0.112607 2.072000 22 23 20
-0.440485 0.128204 2.359000 31 30 22
-0.237070 0.135487 2.493000 62 66 71
-0.009523 0.149454 2.750000 65 64 68
0.246959 0.152225 2.801000 23 23 24
0.702455 0.162606 2.992000 88 88 89
0.314725 0.039673 0.730000 81 83 77
0.384229 0.039945 0.735000 104 102 88
0.348800 0.029836 0.549000 23 20 17
0.379477 0.028369 0.522000 19 23 22
0.509095 0.033478 0.616000 72 78 77
-0.875110 0.093650 1.644000 34 34 28
-0.726672 0.093935 1.649000 25 26 23
-0.701926 0.114556 2.011000 18 18 18
-0.556010 0.123044 2.160000 21 25 24
-0.403511 0.138652 2.434000 29 29 23
-0.190269 0.146172 2.566000 66 69 77
0.047444 0.154603 2.714000 34 32 38
0.311297 0.162521 2.853000 24 24 25
0.591992 0.167989 2.949000 87 86 90
0.279172 0.041413 0.727000 62 59 56
0.373850 0.044774 0.786000 94 94 83
0.395953 0.039761 0.698000 61 51 49
0.356898 0.030020 0.527000 18 18 18
0.399805 0.029622 0.520000 32 32 32
-0.934769 0.095690 1.606000 168 174 174
-0.835670 0.101529 1.704000 25 25 25
-0.709041 0.105938 1.778000 19 19 19
-0.636424 0.123456 2.072000 17 21 20
-0.496997 0.137398 2.306000 29 28 25
-0.300315 0.144429 2.424000 30 34 33
-0.087170 0.160993 2.702000 68 70 75
0.169382 0.169990 2.853000 25 23 24
0.447415 0.176544 2.963000 78 81 84
0.725954 0.178272 2.992000 89 89 90
0.309838 0.043615 0.732000 77 82 78
0.382576 0.044270 0.743000 106 102 88
0.347425 0.033128 0.556000 20 21 18
0.374011 0.031102 0.522000 22 28 28
0.500196 0.036524 0.613000 72 78 78
-0.879414 0.102258 1.644000 36 34 28
-0.725226 0.101761 1.636000 26 24 24
-0.700157 0.123842 1.991000 16 20 19
-0.563485 0.134789 2.167000 20 24 23
-0.405000 0.149593 2.405000 28 27 24
-0.196987 0.159607 2.566000 61 68 72
0.040339 0.168813 2.714000 33 31 37
0.298290 0.174225 2.801000 26 24 25
0.575950 0.180818 2.907000 88 88 89
0.267576 0.045842 0.737000 40 36 36
0.346476 0.047397 0.762000 93 93 87
0.388436 0.044225 0.711000 109 105 91
0.350534 0.033091 0.532000 17 17 18
0.389525 0.032282 0.519000 22 26 25
-0.950226 0.104877 1.618000 173 177 176
-0.846575 0.110711 1.708000 27 31 30
-0.718351 0.115248 1.778000 19 19 20
-0.653834 0.135666 2.093000 17 23 22
-0.507085 0.148889 2.297000 27 27 28
-0.310554 0.155890 2.405000 34 40 39
-0.099143 0.171381 2.644000 59 66 70
0.155147 0.185771 2.866000 23 23 24
0.423738 0.188429 2.907000 77 76 80
0.693433 0.189336 2.921000 86 90 90
0.279556 0.047188 0.728000 54 48 46
0.377821 0.051207 0.790000 106 105 97
0.392081 0.044595 0.688000 68 63 58
0.357610 0.033965 0.524000 14 18 17
0.401754 0.033641 0.519000 36 32 32
-1.049522 0.116868 1.733000 175 180 176
-0.862437 0.114913 1.704000 33 39 38
-0.726193 0.118150 1.752000 18 18 18
-0.673492 0.140673 2.086000 21 25 24
-0.527209 0.153756 2.280000 24 24 25
-0.335740 0.162186 2.405000 44 49 45
-0.125201 0.176010 2.610000 62 69 73
0.123387 0.190577 2.826000 25 25 25
0.384096 0.191454 2.839000 45 41 42
0.650363 0.193274 2.866000 87 87 88
0.275744 0.049094 0.728000 41 39 33
0.373968 0.053612 0.795000 108 103 98
0.387240 0.046464 0.689000 70 62 60
0.354169 0.035404 0.525000 12 16 15
0.396911 0.034932 0.518000 30 30 30
-1.052497 0.112508 1.606000 176 177 174
-0.879289 0.118043 1.685000 29 28 25
-0.736936 0.120004 1.713000 19 20 17
-0.699149 0.144664 2.065000 20 24 24
-0.556850 0.157974 2.255000 23 23 24
-0.373518 0.168482 2.405000 38 47 45
-0.164798 0.181302 2.588000 64 70 77
0.075530 0.189289 2.702000 27 27 28
0.327422 0.191811 2.738000 26 26 27
0.594149 0.197065 2.813000 87 87 88
0.272252 0.051420 0.734000 45 43 37
0.367724 0.055694 0.795000 101 97 97
0.383491 0.048478 0.692000 111 106 89
0.350604 0.037129 0.530000 17 17 18
0.390131 0.036288 0.518000 23 27 26
-1.056701 0.116713 1.606000 173 178 174
-0.882989 0.121146 1.667000 32 31 28
-0.734182 0.121800 1.676000 19 23 22
-0.717793 0.150578 2.072000 23 23 24
-0.570229 0.162642 2.238000 23 23 23
-0.390939 0.174125 2.396000 46 59 57
-0.183551 0.186479 2.566000 65 71 78
0.053605 0.193819 2.667000 31 30 34
0.301895 0.196362 2.702000 29 29 30
0.572056 0.204429 2.813000 85 89 89
0.267471 0.054723 0.753000 60 66 65
0.354878 0.057048 0.785000 87 92 88
0.384400 0.051380 0.707000 113 108 91
0.351966 0.039607 0.545000 18 18 18
0.381994 0.037645 0.518000 23 24 21
-1.060659 0.119939 1.593000 175 179 178
-0.892326 0.123778 1.644000 36 33 30
-0.732211 0.122197 1.623000 22 23 20
-0.695662 0.145688 1.935000 22 22 23
-0.590953 0.166092 2.206000 24 24 24
-0.415781 0.177612 2.359000 50 59 57
-0.213586 0.190035 2.524000 60 67 71
0.018371 0.197338 2.621000 47 50 53
0.266526 0.203436 2.702000 25 25 25
0.530476 0.209911 2.788000 84 88 88
0.761700 0.203436 2.702000 87 91 91
0.332075 0.057296 0.761000 87 89 83
0.383854 0.054737 0.727000 115 113 101
0.352856 0.042163 0.560000 18 19 16
0.375213 0.039001 0.518000 17 21 20
-1.124744 0.128083 1.644000 170 175 171
-0.920210 0.127771 1.640000 51 46 41
-0.788714 0.130887 1.680000 24 25 22
-0.677470 0.139691 1.793000 20 24 24
-0.622508 0.169452 2.175000 21 25 24
-0.450257 0.180282 2.314000 45 52 48
-0.253562 0.191890 2.463000 67 71 76
-0.029164 0.200772 2.577000 57 64 68
0.215081 0.208641 2.678000 19 23 23
0.475084 0.215263 2.763000 84 86 91
0.712183 0.210510 2.702000 87 91 91
0.312549 0.057886 0.743000 91 91 85
0.378828 0.057029 0.732000 115 113 107
0.349702 0.043785 0.562000 22 22 16
0.370502 0.040435 0.519000 15 19 18
0.417253 0.040357 0.518000 95 104 102
-0.932240 0.131340 1.631000 76 69 64
-0.811107 0.136091 1.690000 23 24 21
-0.686150 0.142291 1.767000 20 24 23
-0.642911 0.174502 2.167000 21 26 22
-0.471003 0.184971 2.297000 43 53 48
-0.272776 0.193668 2.405000 61 68 72
-0.055454 0.204941 2.545000 59 66 70
0.185430 0.213799 2.655000 24 24 25
0.442113 0.220483 2.738000 87 86 90
0.680850 0.216618 2.690000 87 91 91
0.295714 0.059187 0.735000 88 87 84
0.372777 0.059510 0.739000 111 108 105
0.391019 0.052826 0.656000 29 28 25
0.366474 0.041955 0.521000 18 25 21
0.409444 0.041471 0.515000 109 116 112
-0.923418 0.134945 1.623000 68 62 60
-0.804295 0.140100 1.685000 25 26 23
-0.679596 0.146502 1.762000 19 23 22
-0.644001 0.182088 2.190000 20 25 21
-0.463168 0.190236 2.288000 45 56 54
-0.266480 0.199964 2.405000 62 69 73
-0.048388 0.209858 2.524000 60 67 71
0.189917 0.217923 2.621000 25 25 26
0.441404 0.223660 2.690000 86 89 92
0.678942 0.220750 2.655000 87 91 91
0.369665 0.067597 0.813000 111 113 107
0.382782 0.057703 0.694000 111 105 91
0.351671 0.044732 0.538000 14 18 17
0.385317 0.042986 0.517000 23 23 23
-1.049676 0.136278 1.589000 173 177 177
-0.872430 0.139194 1.623000 33 34 31
-0.723712 0.139194 1.623000 20 25 21
-0.709976 0.171869 2.004000 22 22 22
-0.587807 0.191938 2.238000 38 39 36
-0.403429 0.202315 2.359000 54 63 62
-0.197909 0.213808 2.493000 65 73 75
0.031164 0.218267 2.545000 54 60 60
0.272259 0.224785 2.621000 31 31 31
0.525915 0.230703 2.690000 87 86 90
0.272199 0.066209 0.772000 88 88 88
0.372676 0.066466 0.775000 110 111 108
0.387585 0.058062 0.677000 54 56 45
0.354878 0.044768 0.522000 11 17 17
0.396538 0.044082 0.514000 44 44 44
-1.040702 0.143796 1.627000 175 179 178
-0.869540 0.146536 1.658000 30 30 30
-0.737526 0.150602 1.704000 21 26 22
-0.716497 0.185601 2.100000 24 24 24
-0.566996 0.200802 2.272000 44 53 51
-0.372550 0.208491 2.359000 54 60 60
-0.165276 0.220334 2.493000 63 71 78
0.064478 0.224930 2.545000 27 36 35
0.303996 0.229703 2.599000 33 33 33
0.566133 0.239867 2.714000 88 87 91
0.282391 0.066816 0.756000 88 93 89
0.372569 0.064607 0.731000 109 111 105
0.392049 0.057625 0.652000 25 26 23
0.369144 0.045870 0.519000 14 19 15
0.412686 0.045428 0.514000 104 115 107
-0.930974 0.146873 1.614000 166 171 174
-0.808796 0.151696 1.667000 24 29 25
-0.683596 0.158066 1.737000 20 24 23
-0.654258 0.197195 2.167000 27 31 31
-0.479456 0.207478 2.280000 51 60 59
-0.280978 0.215486 2.368000 62 66 71
-0.066834 0.225041 2.473000 66 72 79
0.160416 0.225951 2.483000 22 26 25
0.406059 0.236507 2.599000 83 86 89
0.646935 0.237508 2.610000 90 90 91
0.377033 0.073345 0.806000 118 119 116
0.384877 0.062607 0.688000 84 89 85
0.352089 0.047866 0.526000 12 18 17
0.391155 0.046774 0.514000 34 34 34
-1.048292 0.150349 1.606000 175 179 179
-0.875178 0.149507 1.597000 43 41 35
-0.728843 0.149507 1.597000 22 27 23
-0.682085 0.175064 1.870000 21 25 24
-0.609058 0.208766 2.230000 44 53 51
-0.416881 0.215039 2.297000 52 61 60
-0.216109 0.225150 2.405000 59 66 70
0.004385 0.231515 2.473000 60 67 76
0.239675 0.240222 2.566000 29 29 29
0.478871 0.242281 2.588000 86 85 89
0.271630 0.073209 0.782000 91 91 91
0.367014 0.069558 0.743000 117 119 113
0.390591 0.062443 0.667000 33 36 28
0.361018 0.048775 0.521000 27 27 28
0.401697 0.047932 0.512000 118 124 124
-1.034487 0.159558 1.658000 178 179 176
-0.864820 0.158692 1.649000 31 32 29
-0.735362 0.163504 1.699000 22 26 25
-0.719227 0.202864 2.108000 22 26 25
-0.564750 0.217780 2.263000 49 55 55
-0.362758 0.221052 2.297000 55 63 65
-0.161364 0.234237 2.434000 66 73 77
0.062907 0.238952 2.483000 59 66 70
0.297679 0.244919 2.545000 30 30 30
0.546734 0.252233 2.621000 84 83 87
0.275996 0.074775 0.777000 91 91 91
0.366973 0.071118 0.739000 115 117 111
0.391161 0.063996 0.665000 32 35 27
0.361687 0.050042 0.520000 18 23 26
0.402250 0.049176 0.511000 114 118 117
-1.006082 0.162119 1.640000 178 179 176
-0.856803 0.164788 1.667000 31 31 31
-0.723482 0.169336 1.713000 22 26 25
-0.701781 0.209767 2.122000 46 52 51
-0.541051 0.223705 2.263000 50 56 56
-0.337377 0.226176 2.288000 56 61 64
-0.134814 0.238731 2.415000 66 73 77
0.087477 0.241499 2.443000 61 68 72
0.322929 0.250494 2.534000 70 76 75
0.569362 0.256920 2.599000 88 87 91
0.282304 0.076315 0.772000 101 102 99
0.369246 0.072361 0.732000 118 123 119
0.392808 0.065144 0.659000 28 28 22
0.367076 0.051206 0.518000 15 19 18
0.408939 0.050514 0.511000 105 111 111
-0.992020 0.165500 1.631000 175 176 173
-0.856803 0.169153 1.667000 32 32 32
-0.725594 0.174328 1.718000 22 26 25
-0.704427 0.216134 2.130000 46 55 54
-0.539139 0.228818 2.255000 52 58 57
-0.335017 0.230543 2.272000 57 62 65
-0.133195 0.242111 2.386000 67 74 78
0.086797 0.245967 2.424000 60 67 71
0.320380 0.255099 2.514000 68 76 78
0.566952 0.262608 2.588000 87 86 90
0.284694 0.078437 0.773000 112 117 113
0.367966 0.075190 0.741000 123 124 121
0.392337 0.067681 0.667000 33 33 27
0.363709 0.052664 0.519000 15 19 18
0.404133 0.051750 0.510000 111 112 109
-0.984113 0.168417 1.618000 174 174 174
-0.861167 0.173517 1.667000 31 32 29
-0.732217 0.179346 1.723000 22 27 23
-0.710004 0.221710 2.130000 47 56 55
-0.543109 0.233889 2.247000 53 59 58
-0.337214 0.233889 2.247000 59 64 67
-0.138390 0.246484 2.368000 65 72 76
0.080152 0.251376 2.415000 60 69 73
0.311177 0.259495 2.493000 66 73 77
0.555415 0.267093 2.566000 83 81 87
0.283401 0.080669 0.775000 111 117 110
0.367035 0.077755 0.747000 124 125 122
0.391760 0.069948 0.672000 34 32 32
0.359654 0.054231 0.521000 21 25 25
0.400356 0.053294 0.512000 114 122 124
-1.004151 0.173186 1.623000 176 176 176
-0.869137 0.175961 1.649000 34 33 30
-0.748083 0.183323 1.718000 21 26 22
-0.729559 0.226433 2.122000 47 56 55
-0.558318 0.236250 2.214000 54 59 62
-0.358015 0.237958 2.230000 54 62 64
-0.161327 0.249802 2.341000 67 74 78
0.054635 0.256631 2.405000 68 73 82
0.283927 0.264955 2.483000 62 69 73
0.517832 0.268262 2.514000 86 85 89
0.270272 0.083659 0.784000 101 101 101
0.369548 0.084299 0.790000 119 121 115
0.384877 0.073415 0.688000 110 113 105
0.354169 0.056021 0.525000 14 19 15
0.393080 0.054741 0.513000 141 147 140
-1.033609 0.178856 1.636000 178 177 174
-0.881568 0.179294 1.640000 41 39 33
-0.737090 0.180715 1.653000 24 29 25
-0.722021 0.222805 2.038000 47 56 55
-0.575199 0.239423 2.190000 51 59 61
-0.378632 0.242047 2.214000 55 60 63
-0.183699 0.252979 2.314000 61 68 72
0.029217 0.260851 2.386000 65 70 79
0.255847 0.269269 2.463000 66 70 75
0.483489 0.270362 2.473000 83 82 86
0.264068 0.086367 0.790000 101 105 105
0.369535 0.090412 0.827000 128 133 129
0.377467 0.076637 0.701000 120 120 114
0.346908 0.058489 0.535000 12 18 17
0.379650 0.056084 0.513000 23 27 26
0.429983 0.056521 0.517000 80 85 81
-0.887984 0.183140 1.636000 43 38 33
-0.729955 0.181125 1.618000 28 33 29
-0.704290 0.219297 1.959000 49 55 55
-0.582648 0.243477 2.175000 49 58 62
-0.387404 0.246052 2.198000 54 60 60
-0.194377 0.257134 2.297000 64 69 72
0.016597 0.265082 2.368000 63 71 78
0.240978 0.273478 2.443000 64 68 73
0.466735 0.274597 2.453000 83 83 84
0.262234 0.089219 0.797000 105 109 109
0.434511 0.113511 1.014000 123 127 127
0.375676 0.079256 0.708000 123 121 115
0.346799 0.060114 0.537000 14 19 15
0.379044 0.057539 0.514000 26 31 27
0.427801 0.057763 0.516000 81 86 82
-0.890155 0.187881 1.640000 43 38 33
-0.732211 0.185933 1.623000 37 46 44
-0.704290 0.224426 1.959000 49 54 57
-0.580505 0.248255 2.167000 49 59 61
-0.384761 0.250088 2.183000 54 60 60
-0.193615 0.262117 2.288000 66 70 75
0.016471 0.269220 2.350000 62 70 77
0.239104 0.277697 2.424000 68 70 75
0.463120 0.278843 2.434000 79 83 83
0.262234 0.091306 0.797000 105 109 109
0.432369 0.115593 1.009000 123 129 129
0.376996 0.080995 0.707000 122 120 114
0.346037 0.061634 0.538000 15 20 16
0.378433 0.058999 0.515000 27 28 25
0.426450 0.059114 0.516000 81 89 82
-0.896550 0.191706 1.636000 46 40 38
-0.728843 0.187136 1.597000 62 75 73
-0.688286 0.221118 1.887000 48 55 59
-0.585570 0.251233 2.144000 50 60 62
-0.393287 0.253928 2.167000 50 56 56
-0.203349 0.265177 2.263000 62 66 71
0.004135 0.273263 2.332000 69 74 83
0.225571 0.282989 2.415000 70 74 79
0.446860 0.282989 2.415000 80 83 86
0.684196 0.289785 2.473000 86 90 89
0.420966 0.118000 1.007000 126 132 131
0.374820 0.084018 0.717000 122 125 117
