-0.495761 -0.444786 2.144000 127 131 131
-0.025519 -0.164098 0.791000 133 129 129
0.072710 -0.123437 0.595000 57 68 99
0.248723 -0.186503 0.899000 59 66 96
0.358678 -0.177998 0.858000 156 152 145
0.468229 -0.173641 0.837000 133 133 122
1.241687 -0.359522 1.733000 28 37 48
-1.391913 -0.373830 1.825000 84 89 74
-1.198523 -0.395133 1.929000 134 142 135
-0.952690 -0.406604 1.985000 137 146 144
-0.708629 -0.428727 2.093000 138 143 146
-0.401775 -0.428727 2.093000 129 129 130
-0.008284 -0.149942 0.732000 85 93 120
0.085172 -0.121879 0.595000 58 66 100
0.267203 -0.182306 0.890000 59 67 94
0.374479 -0.173703 0.848000 147 145 139
1.569151 -0.536881 2.621000 70 66 66
1.272204 -0.350888 1.713000 39 50 63
-1.348553 -0.370265 1.831000 83 91 79
-1.144451 -0.388870 1.923000 133 140 136
-0.930671 -0.414754 2.051000 135 139 139
-0.660706 -0.427696 2.115000 143 143 144
-0.368029 -0.435178 2.152000 126 126 127
0.019443 -0.128612 0.636000 63 74 105
0.102823 -0.120928 0.598000 51 59 93
0.290177 -0.179774 0.889000 75 83 103
0.393405 -0.170067 0.841000 147 147 136
1.570909 -0.508382 2.514000 38 42 47
1.287280 -0.339730 1.680000 39 50 68
-1.297568 -0.363276 1.820000 86 94 82
-1.116288 -0.389823 1.953000 132 138 137
-0.888367 -0.412179 2.065000 142 146 146
-0.610872 -0.422159 2.115000 139 139 140
-0.317323 -0.429544 2.152000 132 128 129
0.035073 -0.123354 0.618000 52 65 96
0.119866 -0.120759 0.605000 49 58 89
0.312938 -0.175850 0.881000 140 139 143
0.415638 -0.167067 0.837000 144 141 131
1.272681 -0.388626 1.947000 30 39 48
1.335661 -0.335332 1.680000 44 57 70
-1.260206 -0.362845 1.842000 118 118 112
-1.060044 -0.384710 1.953000 140 147 143
-0.815251 -0.400075 2.031000 136 139 142
-0.551784 -0.418000 2.122000 137 142 145
-0.063324 -0.168224 0.854000 136 132 133
0.048670 -0.119372 0.606000 53 64 95
0.213413 -0.179059 0.909000 50 61 87
0.328756 -0.172164 0.874000 144 146 140
0.431098 -0.164088 0.833000 140 139 131
1.204198 -0.354375 1.799000 34 41 50
1.347457 -0.327388 1.662000 39 51 61
-1.254884 -0.363465 1.870000 126 133 129
-1.031301 -0.378431 1.947000 133 139 138
-0.785947 -0.393397 2.024000 131 137 137
-0.522278 -0.411084 2.115000 136 135 139
-0.039479 -0.159963 0.823000 140 138 139
0.063684 -0.116231 0.598000 51 64 95
0.243735 -0.181538 0.934000 50 61 87
0.348419 -0.168321 0.866000 152 152 146
0.451819 -0.161518 0.831000 135 133 127
1.224275 -0.339558 1.747000 25 42 56
-1.392556 -0.341887 1.783000 82 87 72
-1.218523 -0.365280 1.905000 131 138 134
-0.964154 -0.371033 1.935000 137 143 143
-0.727357 -0.390783 2.038000 140 144 144
-0.451091 -0.401329 2.093000 130 127 131
0.011293 -0.123869 0.646000 61 72 103
0.094836 -0.114474 0.597000 50 60 94
0.281495 -0.173724 0.906000 62 68 87
0.383359 -0.162602 0.848000 152 148 141
1.549659 -0.492026 2.566000 52 49 53
1.270702 -0.325780 1.699000 35 53 65
-1.339356 -0.345162 1.825000 88 94 76
-1.114530 -0.355754 1.881000 132 136 135
-0.895526 -0.375423 1.985000 137 143 142
-0.639681 -0.390554 2.065000 140 144 144
-0.104492 -0.191967 1.015000 126 126 127
0.045722 -0.115180 0.609000 53 64 95
0.138962 -0.121422 0.642000 47 57 86
0.322997 -0.165867 0.877000 140 139 136
0.427104 -0.158491 0.838000 137 137 126
1.198099 -0.341191 1.804000 36 45 56
1.350032 -0.316982 1.676000 36 52 64
-1.249121 -0.344488 1.847000 133 139 132
-1.015819 -0.354186 1.899000 131 136 139
-0.778441 -0.368921 1.978000 137 141 141
-0.518978 -0.383842 2.058000 132 131 135
-0.000599 -0.132237 0.709000 67 75 109
0.085029 -0.110788 0.594000 48 56 90
0.274638 -0.173643 0.931000 51 59 81
0.372657 -0.159281 0.854000 151 150 142
0.492234 -0.158908 0.852000 78 73 68
1.259547 -0.318563 1.708000 33 52 66
-1.354746 -0.334687 1.820000 90 97 77
-1.120962 -0.341859 1.859000 137 143 136
-0.893232 -0.355835 1.935000 140 146 146
-0.652659 -0.374776 2.038000 143 147 147
-0.126489 -0.191801 1.043000 126 126 126
0.036869 -0.114198 0.621000 53 65 99
0.123457 -0.113095 0.615000 42 54 83
0.310186 -0.164217 0.893000 133 137 137
0.411019 -0.154655 0.841000 143 142 134
1.268372 -0.362639 1.972000 31 43 53
1.325914 -0.310781 1.690000 41 58 72
-1.265493 -0.329016 1.815000 127 136 127
-1.036137 -0.337898 1.864000 132 142 137
-0.811994 -0.355120 1.959000 132 141 140
-0.552795 -0.366903 2.024000 136 140 140
-0.035127 -0.149009 0.822000 128 126 126
0.065467 -0.108766 0.600000 44 57 88
0.239436 -0.171487 0.946000 45 53 80
0.343196 -0.157710 0.870000 148 146 140
0.445828 -0.150822 0.832000 138 135 125
1.219287 -0.321402 1.773000 39 50 68
1.377916 -0.301281 1.662000 29 44 50
-1.202338 -0.329088 1.842000 139 141 135
-0.961870 -0.336056 1.881000 132 141 139
-0.724805 -0.349991 1.959000 138 138 138
-0.190019 -0.187055 1.047000 124 113 107
0.004752 -0.121130 0.678000 60 69 100
0.088436 -0.106480 0.596000 39 51 80
0.279802 -0.170976 0.957000 47 52 73
0.371722 -0.153110 0.857000 149 149 138
0.485978 -0.150966 0.845000 72 66 64
1.259835 -0.309614 1.733000 41 55 72
-1.345876 -0.313879 1.783000 98 102 84
-1.130001 -0.324266 1.842000 137 147 142
-0.893668 -0.333244 1.893000 138 144 144
-0.656473 -0.349439 1.985000 139 143 142
-0.155712 -0.185898 1.056000 133 129 129
0.036987 -0.109673 0.623000 56 67 98
0.124662 -0.109321 0.621000 41 51 80
0.310951 -0.158788 0.902000 136 141 137
0.408817 -0.148050 0.841000 143 142 134
1.300151 -0.358769 2.038000 34 46 56
1.313168 -0.296627 1.685000 45 60 74
-1.263757 -0.311986 1.799000 132 139 135
-1.027381 -0.317536 1.831000 132 141 140
-0.812178 -0.335571 1.935000 141 145 145
-0.550589 -0.343029 1.978000 137 137 138
-0.090349 -0.169433 0.977000 132 128 128
0.064003 -0.104227 0.601000 44 58 87
0.240702 -0.164924 0.951000 42 51 76
0.343590 -0.151050 0.871000 146 147 139
0.446364 -0.144460 0.833000 137 139 128
1.219287 -0.307477 1.773000 45 54 72
1.370454 -0.286666 1.653000 28 40 48
-1.187977 -0.310863 1.820000 135 140 136
-0.953177 -0.318378 1.864000 133 142 141
-0.715926 -0.330505 1.935000 133 137 137
-0.443739 -0.331530 1.941000 130 128 129
0.008143 -0.113585 0.665000 58 68 97
0.092171 -0.102482 0.600000 40 51 77
0.291944 -0.164655 0.964000 63 69 88
0.379808 -0.146037 0.855000 150 149 141
1.516070 -0.438283 2.566000 45 46 54
1.275499 -0.297540 1.742000 42 58 75
-1.320799 -0.296343 1.762000 116 121 108
-1.106975 -0.306098 1.820000 136 142 135
-0.878153 -0.316358 1.881000 133 138 141
-0.633711 -0.327458 1.947000 133 133 133
-0.012994 -0.132026 0.785000 76 81 104
0.078034 -0.100912 0.600000 36 49 75
0.269230 -0.162131 0.964000 44 47 68
0.363869 -0.145481 0.865000 150 148 142
0.472669 -0.141444 0.841000 78 75 72
1.252169 -0.297184 1.767000 42 55 74
-1.344431 -0.286929 1.733000 96 101 88
-1.154624 -0.301333 1.820000 130 141 133
-0.913594 -0.306797 1.853000 130 139 138
-0.676245 -0.318387 1.923000 133 137 137
-0.408168 -0.321367 1.941000 60 53 54
0.018002 -0.106626 0.644000 55 65 94
0.102443 -0.100169 0.605000 39 46 71
0.308783 -0.156627 0.946000 78 85 101
0.397147 -0.140567 0.849000 144 143 135
1.507356 -0.404482 2.443000 35 43 57
1.299112 -0.283618 1.713000 42 59 73
-1.290899 -0.289725 1.778000 132 141 132
-1.045383 -0.291354 1.788000 135 139 138
-0.839152 -0.308464 1.893000 133 137 136
-0.582401 -0.314330 1.929000 132 136 135
-0.310654 -0.315308 1.935000 108 100 93
0.044635 -0.100377 0.616000 53 64 95
0.139419 -0.106243 0.652000 35 44 69
0.340615 -0.143559 0.881000 149 146 143
0.442462 -0.136552 0.838000 141 142 134
1.197883 -0.287118 1.762000 42 53 71
1.354186 -0.268704 1.649000 32 41 50
-1.182498 -0.285872 1.783000 130 136 129
-0.952346 -0.292605 1.825000 136 140 139
-0.729341 -0.307356 1.917000 136 140 140
-0.459762 -0.308318 1.923000 131 131 132
-0.189659 -0.311204 1.941000 130 126 126
0.068952 -0.096680 0.603000 40 54 83
0.306768 -0.154399 0.963000 67 77 92
0.392779 -0.136923 0.854000 145 145 139
1.483910 -0.385598 2.405000 39 46 62
1.303596 -0.274648 1.713000 41 58 72
-1.274669 -0.277892 1.762000 138 140 134
-1.031971 -0.279626 1.773000 135 139 138
-0.828908 -0.296659 1.881000 136 136 136
-0.568372 -0.299498 1.899000 126 129 132
-0.304641 -0.304230 1.929000 90 81 76
0.027725 -0.100148 0.635000 55 65 94
0.113797 -0.096994 0.615000 35 45 67
0.343708 -0.140207 0.889000 152 152 146
0.444046 -0.132637 0.841000 128 129 121
1.200259 -0.276314 1.752000 39 56 70
1.366126 -0.260701 1.653000 36 44 51
-1.167261 -0.274054 1.767000 132 138 131
-0.939260 -0.280568 1.809000 136 140 139
-0.717521 -0.294527 1.899000 135 135 136
-0.450471 -0.295457 1.905000 130 128 129
-0.183437 -0.299180 1.929000 131 124 119
0.062845 -0.093833 0.605000 43 54 85
0.563956 -0.338574 2.183000 40 45 66
0.374652 -0.134778 0.869000 149 150 142
0.485978 -0.131056 0.845000 52 50 56
1.284552 -0.274054 1.767000 45 56 74
-1.295166 -0.259822 1.704000 130 140 128
-1.093244 -0.269428 1.767000 131 138 134
-0.873985 -0.279187 1.831000 138 138 139
-0.630248 -0.286048 1.876000 135 139 138
-0.373009 -0.292300 1.917000 50 45 40
0.001220 -0.104905 0.688000 59 65 92
0.086461 -0.092097 0.604000 33 44 70
0.317342 -0.143634 0.942000 141 145 144
0.408908 -0.130368 0.855000 149 149 143
1.183138 -0.281626 1.847000 39 50 68
1.321489 -0.257687 1.690000 33 46 59
-1.221930 -0.259707 1.733000 128 136 129
-0.993278 -0.264053 1.762000 136 140 139
-0.785145 -0.278589 1.859000 135 134 131
-0.527108 -0.281137 1.876000 124 124 125
-0.269290 -0.289079 1.929000 95 83 79
0.032558 -0.094711 0.632000 51 60 91
0.120556 -0.093662 0.625000 32 40 62
0.347063 -0.136372 0.910000 155 150 145
0.443824 -0.127231 0.849000 137 136 128
1.197968 -0.261055 1.742000 40 55 74
1.389523 -0.251165 1.676000 31 39 46
-1.135726 -0.255170 1.733000 128 135 131
-0.921565 -0.264004 1.793000 135 141 141
-0.694537 -0.274458 1.864000 132 132 132
-0.434947 -0.276961 1.881000 100 93 94
-0.171719 -0.281379 1.911000 129 122 112
0.063157 -0.089523 0.608000 41 53 82
0.544680 -0.316864 2.152000 39 43 62
0.380075 -0.128247 0.871000 146 147 139
1.379297 -0.340717 2.314000 43 48 59
1.299369 -0.259440 1.762000 41 56 70
-1.266827 -0.244414 1.690000 130 141 133
-1.047977 -0.249186 1.723000 135 135 135
-0.844540 -0.261624 1.809000 137 137 138
-0.595956 -0.264806 1.831000 133 133 134
-0.346306 -0.272037 1.881000 49 43 41
0.006469 -0.097187 0.672000 54 61 86
0.091657 -0.087787 0.607000 35 44 69
0.631529 -0.306891 2.122000 57 62 78
0.408215 -0.124810 0.863000 151 150 142
1.197736 -0.273772 1.893000 35 49 66
1.319053 -0.246439 1.704000 35 46 59
-1.214866 -0.241977 1.704000 135 143 136
-0.984825 -0.244676 1.723000 130 134 134
-0.782968 -0.258450 1.820000 133 137 137
-0.532022 -0.261574 1.842000 125 129 129
-0.279132 -0.268816 1.893000 57 52 47
0.029619 -0.090884 0.640000 51 62 88
0.117283 -0.088753 0.625000 35 40 61
0.344358 -0.132775 0.935000 154 152 146
0.435769 -0.121415 0.855000 139 141 135
1.191436 -0.251776 1.773000 40 54 71
1.370516 -0.239279 1.685000 34 42 49
-1.141212 -0.236122 1.694000 135 141 134
-0.927276 -0.242813 1.742000 134 138 138
-0.713450 -0.254382 1.825000 129 133 133
-0.459686 -0.256752 1.842000 112 110 111
-0.204793 -0.263861 1.893000 102 88 91
0.051418 -0.086420 0.620000 48 59 85
0.472397 -0.286859 2.058000 34 42 62
0.364513 -0.126285 0.906000 149 150 142
0.469218 -0.120291 0.863000 83 76 78
1.230174 -0.245601 1.762000 40 54 71
1.438137 -0.238771 1.713000 29 41 43
-1.091035 -0.230457 1.685000 131 138 134
-0.891792 -0.240988 1.762000 140 144 143
-0.659835 -0.247416 1.809000 130 134 133
-0.411462 -0.251929 1.842000 62 56 49
-0.154250 -0.257263 1.881000 116 105 99
0.068491 -0.083840 0.613000 40 50 79
0.548012 -0.287216 2.100000 37 46 64
0.384439 -0.120494 0.881000 147 145 139
1.228335 -0.284344 2.079000 37 49 57
1.301858 -0.243176 1.778000 44 56 71
-1.244728 -0.221216 1.649000 131 139 132
-1.030620 -0.225374 1.680000 132 138 131
-0.831824 -0.236375 1.762000 134 138 137
-0.600251 -0.243485 1.815000 126 130 129
-0.348770 -0.247107 1.842000 69 69 70
0.004745 -0.090821 0.677000 51 58 83
0.090662 -0.081967 0.611000 29 41 65
0.619484 -0.281718 2.100000 51 59 73
0.410189 -0.116980 0.872000 143 142 134
1.235159 -0.266291 1.985000 39 48 66
1.308081 -0.229801 1.713000 37 48 61
-1.202327 -0.218609 1.662000 135 140 136
-0.980751 -0.221634 1.685000 128 132 131
-0.778671 -0.232420 1.767000 130 135 131
-0.538442 -0.236629 1.799000 123 127 127
-0.290901 -0.242285 1.842000 47 40 41
0.021739 -0.086154 0.655000 48 60 84
0.108753 -0.081945 0.623000 31 39 59
0.678604 -0.273458 2.079000 150 155 151
0.432805 -0.114039 0.867000 142 142 136
1.169762 -0.237286 1.804000 39 50 68
1.341871 -0.223475 1.699000 36 43 47
-1.163166 -0.214257 1.662000 135 140 136
-0.943841 -0.217867 1.690000 128 134 133
-0.741625 -0.229212 1.778000 134 138 137
-0.493020 -0.230501 1.788000 120 124 123
-0.248171 -0.238107 1.847000 47 44 41
0.037818 -0.082119 0.637000 43 55 84
0.128877 -0.082764 0.642000 35 41 60
0.360197 -0.120923 0.938000 157 151 149
0.453928 -0.111383 0.864000 136 135 127
1.220364 -0.233208 1.809000 36 50 67
1.397775 -0.220832 1.713000 31 39 41
-1.107528 -0.207633 1.644000 137 145 138
-0.901725 -0.213948 1.694000 130 136 135
-0.693122 -0.223925 1.773000 135 135 135
-0.444962 -0.225188 1.783000 56 47 49
-0.199816 -0.233271 1.847000 60 52 50
0.054929 -0.078683 0.623000 42 52 81
0.466034 -0.250700 1.985000 34 41 57
0.375777 -0.116446 0.922000 148 146 140
0.477579 -0.109879 0.870000 60 58 58
1.261206 -0.226451 1.793000 38 50 65
-1.269015 -0.199618 1.614000 132 139 130
-1.055025 -0.202339 1.636000 132 138 137
-0.859990 -0.211244 1.708000 141 148 144
-0.634458 -0.216686 1.752000 129 129 129
-0.395822 -0.221757 1.793000 36 33 30
-0.017427 -0.088307 0.714000 99 91 84
0.072285 -0.076434 0.618000 35 43 70
0.530052 -0.248719 2.011000 41 48 64
0.390548 -0.110693 0.895000 149 147 141
1.202305 -0.252801 2.044000 41 48 59
1.297203 -0.219902 1.778000 42 55 68
-1.216879 -0.193819 1.601000 130 140 135
-1.006626 -0.196967 1.627000 130 137 133
-0.817661 -0.207378 1.713000 141 147 146
-0.595645 -0.214642 1.773000 127 125 125
-0.350048 -0.217789 1.799000 40 38 32
0.001222 -0.083411 0.689000 56 59 82
0.088465 -0.074816 0.618000 32 41 66
0.587965 -0.243454 2.011000 44 55 68
0.410275 -0.106776 0.882000 146 142 135
1.216744 -0.238733 1.972000 40 48 68
1.321105 -0.210889 1.742000 34 42 56
-1.174429 -0.190220 1.606000 133 140 136
-0.965080 -0.193773 1.636000 128 135 131
-0.772814 -0.204078 1.723000 129 138 137
-0.542742 -0.209289 1.767000 124 124 125
-0.294759 -0.210592 1.778000 104 104 105
0.018505 -0.078409 0.662000 43 54 80
0.106168 -0.074264 0.627000 30 40 62
0.626011 -0.236650 1.998000 135 140 136
0.425472 -0.104230 0.880000 149 148 140
1.168095 -0.216870 1.831000 40 50 70
1.357590 -0.206328 1.742000 32 41 50
-1.140792 -0.186015 1.606000 133 137 136
-0.935367 -0.190417 1.644000 126 133 129
-0.732452 -0.198409 1.713000 125 131 130
-0.497148 -0.201188 1.737000 119 119 120
-0.256796 -0.205358 1.773000 56 54 48
0.035079 -0.075055 0.648000 45 56 82
0.129426 -0.076676 0.662000 32 41 59
0.357845 -0.110961 0.958000 153 153 147
0.451059 -0.101463 0.876000 139 137 131
1.228159 -0.213350 1.842000 31 48 67
1.403716 -0.201188 1.737000 30 41 45
-1.088408 -0.180792 1.597000 131 139 132
-0.892884 -0.187131 1.653000 126 132 131
-0.685114 -0.194490 1.718000 129 138 137
-0.446095 -0.196188 1.733000 92 86 84
-0.207477 -0.202414 1.788000 48 45 42
0.047674 -0.071887 0.635000 38 49 75
0.424975 -0.217018 1.917000 36 40 59
0.368740 -0.106528 0.941000 144 140 133
0.467646 -0.099283 0.877000 104 102 103
1.246844 -0.206037 1.820000 33 49 66
1.411581 -0.193358 1.708000 58 72 62
-1.052318 -0.176169 1.593000 137 143 136
-0.858263 -0.182804 1.653000 132 136 135
-0.645353 -0.188886 1.708000 128 131 134
-0.409799 -0.191651 1.733000 40 37 34
-0.170504 -0.198286 1.793000 50 44 42
0.060206 -0.069339 0.627000 38 47 72
0.466581 -0.212663 1.923000 35 42 58
0.384320 -0.102959 0.931000 149 149 143
1.128170 -0.220957 1.998000 41 45 50
1.270136 -0.198950 1.799000 35 49 66
-1.224424 -0.169839 1.573000 132 139 130
-1.009687 -0.171134 1.585000 132 134 128
-0.826253 -0.179988 1.667000 141 145 144
-0.610423 -0.186034 1.723000 123 123 123
-0.369817 -0.187546 1.737000 34 32 26
-0.015623 -0.077415 0.717000 48 38 43
0.074860 -0.067590 0.626000 34 46 70
0.515086 -0.208924 1.935000 39 47 61
0.396879 -0.098794 0.915000 153 153 147
1.177629 -0.217130 2.011000 37 42 58
1.292548 -0.191973 1.778000 33 48 62
-1.179359 -0.164035 1.557000 126 134 127
-0.974026 -0.166563 1.581000 132 139 130
-0.784693 -0.174149 1.653000 141 147 147
-0.576003 -0.182050 1.728000 125 125 125
-0.330749 -0.181523 1.723000 40 37 34
-0.002435 -0.074063 0.703000 56 57 72
0.086746 -0.066267 0.629000 31 41 63
0.545425 -0.201962 1.917000 50 57 68
0.405410 -0.095028 0.902000 152 151 148
1.196171 -0.210495 1.998000 37 44 60
1.303982 -0.185632 1.762000 27 43 55
-1.148967 -0.159137 1.549000 130 138 131
-0.946790 -0.162013 1.577000 132 133 130
-0.758728 -0.169821 1.653000 141 145 144
-0.547271 -0.177013 1.723000 119 119 120
-0.301040 -0.175471 1.708000 102 101 105
0.008425 -0.070682 0.688000 46 56 76
0.097394 -0.065134 0.634000 30 40 60
0.577339 -0.197560 1.923000 134 138 138
0.420068 -0.091742 0.893000 147 148 140
1.180392 -0.195710 1.905000 37 49 64
1.356867 -0.183177 1.783000 25 39 49
-1.116525 -0.155081 1.549000 132 138 131
-0.918396 -0.158685 1.585000 128 133 129
-0.714470 -0.163291 1.631000 136 140 139
-0.509701 -0.172001 1.718000 116 116 117
-0.263870 -0.170099 1.699000 116 116 117
0.022204 -0.066978 0.669000 44 54 76
0.113466 -0.065076 0.650000 31 41 56
0.343185 -0.098916 0.988000 142 140 140
0.434967 -0.089104 0.890000 146 144 138
1.176091 -0.183815 1.836000 36 48 63
1.394210 -0.178509 1.783000 30 38 45
-1.081283 -0.150636 1.545000 130 135 131
-0.894136 -0.156096 1.601000 135 143 136
-0.680310 -0.159021 1.631000 139 138 142
-0.469858 -0.166138 1.704000 108 112 112
-0.224523 -0.162921 1.671000 109 109 109
0.033897 -0.064154 0.658000 40 53 74
0.131550 -0.066494 0.682000 35 43 57
0.360195 -0.095354 0.978000 137 136 133
0.452588 -0.086579 0.888000 137 140 132
1.223336 -0.179593 1.842000 37 51 68
1.391919 -0.168478 1.728000 55 66 58
-1.040834 -0.146591 1.545000 130 138 131
-0.845833 -0.150766 1.589000 135 142 138
-0.642692 -0.155984 1.644000 119 122 125
-0.422751 -0.160728 1.694000 64 70 70
-0.181891 -0.163480 1.723000 48 44 44
0.050036 -0.061103 0.644000 36 45 70
0.424347 -0.177427 1.870000 36 44 58
0.376332 -0.090516 0.954000 146 148 142
0.476908 -0.084444 0.890000 69 66 75
1.244044 -0.171640 1.809000 35 49 66
1.389523 -0.159021 1.676000 80 85 70
-1.004430 -0.142546 1.545000 130 137 133
-0.812463 -0.147344 1.597000 136 145 144
-0.610568 -0.153341 1.662000 126 131 134
-0.381933 -0.155924 1.690000 35 33 27
-0.133730 -0.160722 1.742000 40 38 38
0.064299 -0.058587 0.635000 35 42 67
0.469912 -0.173085 1.876000 40 49 60
0.390791 -0.085712 0.929000 149 151 145
1.145067 -0.183696 1.991000 34 46 56
1.277511 -0.164505 1.783000 32 44 59
-1.152428 -0.135453 1.511000 128 136 129
-0.959937 -0.138501 1.545000 132 139 135
-0.764552 -0.142804 1.593000 139 145 145
-0.567445 -0.150245 1.676000 117 122 125
-0.329517 -0.149797 1.671000 57 59 53
-0.010131 -0.065172 0.727000 35 34 31
0.081561 -0.057373 0.640000 36 41 62
0.520586 -0.167098 1.864000 64 67 75
0.411252 -0.082025 0.915000 144 149 145
1.189375 -0.177318 1.978000 33 43 58
1.320478 -0.159389 1.778000 31 38 49
-1.106977 -0.130801 1.503000 128 138 133
-0.919488 -0.134457 1.545000 127 134 130
-0.713771 -0.136893 1.573000 140 146 145
-0.520755 -0.145074 1.667000 114 118 118
-0.283546 -0.144291 1.658000 100 93 94
0.008584 -0.061006 0.701000 46 55 73
0.100159 -0.056742 0.652000 30 39 57
0.569386 -0.162218 1.864000 140 142 136
0.426183 -0.078846 0.906000 132 127 122
1.167334 -0.163262 1.876000 35 46 59
1.361534 -0.155169 1.783000 22 33 37
-1.073351 -0.126613 1.500000 125 132 128
-0.894020 -0.131425 1.557000 139 146 142
-0.677364 -0.132100 1.565000 137 139 144
-0.483218 -0.139950 1.658000 113 111 112
-0.241017 -0.135561 1.606000 114 107 108
0.020880 -0.057651 0.683000 43 53 73
0.115547 -0.056723 0.672000 32 41 59
0.349561 -0.085591 1.014000 148 148 142
0.440414 -0.076474 0.906000 146 145 142
1.177278 -0.156410 1.853000 34 44 59
1.380991 -0.150079 1.778000 30 41 40
-1.055823 -0.122932 1.503000 127 132 128
-0.873638 -0.127348 1.557000 132 140 133
-0.658556 -0.128330 1.569000 135 138 141
-0.456504 -0.134137 1.640000 103 101 102
-0.212734 -0.127021 1.553000 110 108 108
0.031100 -0.054963 0.672000 42 52 74
0.130419 -0.056845 0.695000 36 41 57
0.359794 -0.081055 0.991000 145 144 141
0.459540 -0.074511 0.911000 137 138 135
1.201650 -0.149759 1.831000 31 47 59
1.378347 -0.141335 1.728000 69 76 72
-1.033752 -0.119630 1.511000 133 139 132
-0.838591 -0.122322 1.545000 127 131 131
-0.629803 -0.124222 1.569000 133 138 141
-0.423069 -0.128814 1.627000 93 91 91
-0.186647 -0.124539 1.573000 106 104 105
0.044300 -0.052175 0.659000 38 46 66
0.404580 -0.144490 1.825000 38 45 56
0.375798 -0.076956 0.972000 136 131 126
1.002042 -0.148053 1.870000 68 61 63
1.225100 -0.143224 1.809000 35 45 60
1.353144 -0.130873 1.653000 66 75 61
-0.999453 -0.115368 1.507000 127 134 130
-0.799970 -0.117358 1.533000 134 141 137
-0.598463 -0.120421 1.573000 135 140 143
-0.388036 -0.124248 1.623000 80 83 86
-0.156437 -0.122564 1.601000 91 88 85
0.057397 -0.049837 0.651000 35 45 65
0.438921 -0.138488 1.809000 42 49 60
0.385559 -0.072421 0.946000 149 152 144
1.099807 -0.150507 1.966000 37 43 50
1.253008 -0.136880 1.788000 33 41 55
-1.143411 -0.108243 1.464000 130 139 130
-0.956908 -0.110609 1.496000 127 134 130
-0.756375 -0.112236 1.518000 139 146 142
-0.567110 -0.117485 1.589000 139 139 140
-0.350657 -0.120295 1.627000 77 83 82
-0.121309 -0.120960 1.636000 82 77 72
0.072513 -0.047985 0.649000 35 44 62
0.475955 -0.132199 1.788000 129 128 132
0.402675 -0.069057 0.934000 149 150 147
1.152010 -0.146764 1.985000 34 42 49
1.275300 -0.130646 1.767000 27 36 47
-1.104388 -0.103626 1.453000 127 133 126
-0.921245 -0.106194 1.489000 123 130 126
-0.726491 -0.108547 1.522000 133 137 136
-0.533829 -0.113325 1.589000 131 136 139
-0.314051 -0.115108 1.614000 83 87 86
-0.004427 -0.051920 0.728000 46 44 44
0.089023 -0.046928 0.658000 33 42 60
0.499813 -0.126448 1.773000 128 126 126
0.414666 -0.066184 0.928000 145 144 141
1.171866 -0.140213 1.966000 31 43 53
1.295682 -0.125307 1.757000 27 35 37
-1.079330 -0.099616 1.450000 135 137 131
-0.895443 -0.102020 1.485000 132 140 133
-0.705815 -0.105043 1.529000 130 136 135
-0.507588 -0.108891 1.585000 121 125 130
-0.284942 -0.109440 1.593000 91 91 91
0.012359 -0.048571 0.707000 50 56 70
0.108498 -0.046923 0.683000 31 41 56
0.539756 -0.121394 1.767000 141 140 137
0.432231 -0.063479 0.924000 150 149 141
1.187827 -0.131699 1.917000 30 42 50
1.344690 -0.121394 1.767000 47 54 50
-1.045165 -0.095820 1.450000 125 134 132
-0.864509 -0.098595 1.492000 139 145 144
-0.668474 -0.100842 1.526000 132 130 130
-0.469055 -0.104477 1.581000 117 123 123
-0.239952 -0.102098 1.545000 108 105 102
0.029864 -0.045201 0.684000 40 50 72
0.323271 -0.112274 1.699000 38 44 58
0.357525 -0.067008 1.014000 147 148 145
0.459879 -0.061523 0.931000 127 125 119
1.234140 -0.126284 1.911000 33 44 57
1.383079 -0.116107 1.757000 77 81 63
-1.020016 -0.093547 1.474000 121 133 128
-0.827599 -0.095387 1.503000 133 139 138
-0.621254 -0.096339 1.518000 124 122 122
-0.421382 -0.099830 1.573000 95 95 96
-0.194447 -0.097545 1.537000 93 87 85
0.048331 -0.042331 0.667000 39 47 67
0.387288 -0.110873 1.747000 43 50 59
0.375557 -0.062068 0.978000 147 147 141
1.011151 -0.119758 1.887000 57 53 59
1.235936 -0.115823 1.825000 34 41 50
1.339227 -0.103828 1.636000 73 76 61
-0.973708 -0.089688 1.474000 122 133 125
-0.773111 -0.090601 1.489000 132 138 138
-0.576586 -0.092852 1.526000 127 133 132
-0.371964 -0.095712 1.573000 94 97 100
-0.142641 -0.091270 1.500000 49 42 44
0.062020 -0.040402 0.664000 37 48 66
0.422665 -0.105995 1.742000 118 122 122
0.389157 -0.058474 0.961000 136 131 126
1.047411 -0.115548 1.899000 39 43 48
1.250051 -0.109767 1.804000 25 37 45
1.329051 -0.096929 1.593000 75 81 63
-0.937703 -0.085014 1.460000 127 132 128
-0.740314 -0.086062 1.478000 133 142 141
-0.548620 -0.088857 1.526000 118 118 119
-0.343137 -0.091593 1.573000 91 96 99
-0.111314 -0.084431 1.450000 31 24 25
0.069078 -0.038722 0.665000 41 50 68
0.437364 -0.100619 1.728000 119 123 123
0.397559 -0.055725 0.957000 146 147 144
1.079045 -0.111275 1.911000 31 39 46
1.265900 -0.104404 1.793000 22 32 39
-1.091093 -0.078744 1.416000 125 132 128
-0.914188 -0.080802 1.453000 132 137 133
-0.719015 -0.081970 1.474000 132 141 140
-0.528645 -0.084862 1.526000 127 132 135
-0.320085 -0.086808 1.561000 99 105 105
-0.089340 -0.078022 1.403000 26 20 18
0.076613 -0.037259 0.670000 40 49 67
0.454142 -0.095817 1.723000 113 109 109
0.405451 -0.052941 0.952000 148 147 144
1.107527 -0.106605 1.917000 30 39 43
1.282179 -0.099154 1.783000 24 33 32
-1.065741 -0.074560 1.407000 128 135 131
-0.893319 -0.076839 1.450000 128 128 128
-0.701619 -0.078323 1.478000 133 142 141
-0.509669 -0.081025 1.529000 131 137 137
-0.296580 -0.081873 1.545000 100 98 98
-0.068647 -0.071911 1.357000 23 20 17
0.089089 -0.036300 0.685000 37 44 60
0.478414 -0.090776 1.713000 128 132 131
0.414401 -0.050025 0.944000 135 135 129
1.137640 -0.101587 1.917000 29 36 45
1.302839 -0.093956 1.773000 29 35 35
-1.045864 -0.071028 1.410000 132 140 133
-0.870543 -0.073043 1.450000 137 141 140
-0.678403 -0.074453 1.478000 122 126 126
-0.485651 -0.077023 1.529000 110 109 113
-0.268962 -0.076871 1.526000 96 90 88
0.001292 -0.036723 0.729000 56 60 60
0.100632 -0.035413 0.703000 37 42 58
0.492651 -0.084881 1.685000 118 117 121
0.427662 -0.047654 0.946000 137 143 136
1.160443 -0.095963 1.905000 30 35 46
1.334442 -0.089566 1.778000 77 84 64
-1.025894 -0.067480 1.413000 126 131 127
-0.847766 -0.069247 1.450000 131 137 136
-0.650310 -0.070059 1.467000 131 137 137
-0.459520 -0.072685 1.522000 117 122 125
-0.245473 -0.073020 1.529000 77 69 67
0.012604 -0.034432 0.721000 60 62 72
0.114217 -0.034337 0.719000 45 50 61
0.347781 -0.050479 1.057000 146 142 142
0.448762 -0.045560 0.954000 139 145 138
1.206649 -0.091836 1.923000 27 34 45
1.354724 -0.084147 1.762000 75 76 61
-1.002122 -0.063916 1.416000 125 130 126
-0.817228 -0.065135 1.443000 126 126 126
-0.623425 -0.066218 1.467000 133 139 138
-0.429359 -0.068340 1.514000 105 102 106
-0.217026 -0.068881 1.526000 44 37 39
0.025387 -0.032003 0.709000 45 55 70
0.306062 -0.073621 1.631000 97 98 95
0.357426 -0.046447 1.029000 142 140 140
0.466734 -0.043107 0.955000 137 138 130
1.258596 -0.087614 1.941000 24 33 37
1.352928 -0.077322 1.713000 78 82 64
-0.966706 -0.060081 1.413000 128 132 131
-0.787027 -0.061655 1.450000 134 140 133
-0.588859 -0.062377 1.467000 127 132 135
-0.394726 -0.064546 1.518000 106 109 112
-0.180121 -0.064546 1.518000 30 26 26
0.041143 -0.029467 0.693000 41 49 69
0.339388 -0.069181 1.627000 107 105 105
0.369034 -0.042605 1.002000 145 145 139
0.959789 -0.078067 1.836000 59 57 63
1.273146 -0.081512 1.917000 25 32 36
1.335533 -0.070499 1.658000 73 76 56
-0.942505 -0.056262 1.410000 136 139 131
-0.764250 -0.057858 1.450000 136 142 135
-0.564658 -0.058417 1.464000 127 133 133
-0.369170 -0.060292 1.511000 100 99 103
-0.154731 -0.059973 1.503000 26 23 20
0.049707 -0.027373 0.686000 41 50 68
0.365842 -0.065081 1.631000 112 114 108
0.377192 -0.039463 0.989000 141 139 133
0.966763 -0.073061 1.831000 53 50 59
1.275152 -0.076014 1.905000 26 30 35
1.326378 -0.065280 1.636000 77 82 62
-0.930479 -0.052310 1.403000 135 141 134
-0.753005 -0.053801 1.443000 131 138 134
-0.554330 -0.054323 1.457000 129 133 133
-0.358629 -0.055926 1.500000 104 100 101
-0.146568 -0.055926 1.500000 24 23 20
0.051654 -0.025652 0.688000 41 50 68
0.364048 -0.060512 1.623000 114 115 107
0.378336 -0.036986 0.992000 133 132 129
0.960955 -0.067857 1.820000 52 49 58
1.267119 -0.070579 1.893000 26 31 34
1.322324 -0.060811 1.631000 77 83 60
-0.926500 -0.048429 1.397000 133 139 132
-0.751440 -0.049919 1.440000 130 137 133
-0.552808 -0.050370 1.453000 133 133 134
-0.356716 -0.051722 1.492000 104 100 101
-0.146177 -0.051861 1.496000 25 25 19
0.050360 -0.024093 0.695000 46 52 71
0.366255 -0.055951 1.614000 116 116 105
0.379099 -0.034458 0.994000 139 135 135
0.959883 -0.062711 1.809000 48 45 54
1.268043 -0.065415 1.887000 26 34 36
1.320087 -0.056263 1.623000 77 83 60
-0.920861 -0.044675 1.394000 130 138 131
-0.744035 -0.045925 1.433000 131 137 136
-0.546737 -0.046374 1.447000 131 130 134
-0.352101 -0.047720 1.489000 100 96 96
-0.141595 -0.047720 1.489000 24 22 16
0.050794 -0.022466 0.701000 46 52 71
0.356030 -0.051469 1.606000 117 111 99
0.377656 -0.032176 1.004000 132 130 131
0.949867 -0.057655 1.799000 50 47 56
1.259087 -0.060283 1.881000 21 30 34
1.322324 -0.052271 1.631000 78 82 64
-0.917878 -0.040731 1.384000 126 135 126
-0.742569 -0.041879 1.423000 133 139 138
-0.549003 -0.042468 1.443000 129 133 133
-0.354086 -0.043586 1.481000 94 91 88
-0.144028 -0.043380 1.474000 26 24 18
0.051229 -0.020807 0.707000 45 54 72
0.359113 -0.047118 1.601000 113 104 93
0.381769 -0.029460 1.001000 141 139 139
0.953421 -0.052621 1.788000 42 44 49
1.261515 -0.055034 1.870000 23 33 35
1.316993 -0.047500 1.614000 76 81 68
-0.912273 -0.037028 1.381000 126 134 127
-0.735209 -0.037966 1.416000 134 138 137
-0.544092 -0.038610 1.440000 127 132 135
-0.348554 -0.039521 1.474000 74 67 68
-0.139503 -0.039333 1.467000 26 21 16
0.049797 -0.019117 0.713000 42 51 69
0.353148 -0.042712 1.593000 103 93 84
0.381421 -0.027000 1.007000 139 137 138
0.948089 -0.047672 1.778000 41 43 48
1.254094 -0.049844 1.859000 24 34 36
1.316993 -0.043275 1.614000 75 79 68
-0.905042 -0.033412 1.381000 133 141 134
-0.724711 -0.034114 1.410000 131 138 134
-0.535061 -0.034743 1.436000 128 132 137
-0.339217 -0.035493 1.467000 63 56 58
-0.128767 -0.034670 1.433000 27 25 19
0.055863 -0.017396 0.719000 45 54 72
0.356422 -0.038444 1.589000 97 90 80
0.384774 -0.024243 1.002000 145 144 141
0.946849 -0.042751 1.767000 38 41 44
1.254898 -0.044832 1.853000 24 34 36
1.314669 -0.038856 1.606000 74 78 67
-0.897510 -0.029667 1.375000 128 136 129
-0.715906 -0.030207 1.400000 127 134 130
-0.530192 -0.030919 1.433000 123 127 132
-0.334691 -0.031587 1.464000 53 44 45
-0.120479 -0.029797 1.381000 26 24 18
0.062024 -0.015643 0.725000 47 53 72
0.367973 -0.034198 1.585000 100 93 83
0.389508 -0.021447 0.994000 142 141 138
0.959890 -0.037909 1.757000 35 39 44
1.262612 -0.039614 1.836000 24 35 33
1.314077 -0.034198 1.585000 70 72 61
-0.881184 -0.026010 1.372000 134 141 137
-0.698239 -0.026428 1.394000 127 134 130
-0.516264 -0.027224 1.436000 121 126 129
-0.320014 -0.027811 1.467000 39 30 31
-0.091775 -0.024323 1.283000 26 22 22
0.066365 -0.013858 0.731000 46 52 71
0.371184 -0.029973 1.581000 95 86 75
0.390292 -0.018882 0.996000 142 141 138
0.954427 -0.033120 1.747000 38 39 47
1.255047 -0.034598 1.825000 31 40 38
1.324026 -0.030276 1.597000 70 72 61
-0.878972 -0.022271 1.363000 132 139 135
-0.698868 -0.022680 1.388000 136 137 134
-0.516402 -0.023301 1.426000 119 122 125
-0.322309 -0.023856 1.460000 39 30 31
-0.101852 -0.020964 1.283000 25 25 19
0.061121 -0.012043 0.737000 46 52 71
0.421918 -0.025899 1.585000 124 121 111
0.417802 -0.016030 0.981000 139 145 138
1.033616 -0.028971 1.773000 25 35 42
1.326284 -0.029919 1.831000 64 68 57
-1.004966 -0.018333 1.336000 124 131 127
-0.830751 -0.018662 1.360000 129 131 125
-0.648342 -0.018950 1.381000 133 140 136
-0.472462 -0.019760 1.440000 114 111 108
-0.275980 -0.020281 1.478000 27 27 21
-0.043310 -0.015849 1.155000 93 100 96
0.233808 -0.020885 1.522000 24 24 24
0.472283 -0.021969 1.601000 130 129 126
0.447250 -0.013420 0.978000 126 127 124
1.106299 -0.024604 1.793000 22 30 37
1.388601 -0.025125 1.831000 71 69 57
-0.960831 -0.014802 1.333000 120 128 121
-0.782810 -0.015001 1.351000 130 136 135
-0.599699 -0.015201 1.369000 125 134 133
-0.426036 -0.015945 1.436000 77 70 71
-0.228459 -0.016334 1.471000 26 26 20
0.005642 -0.008939 0.805000 100 106 113
0.253731 -0.016900 1.522000 30 27 24
0.354033 -0.011948 1.076000 129 126 123
0.823468 -0.018810 1.694000 131 133 127
1.118801 -0.019798 1.783000 21 29 36
1.390861 -0.020087 1.809000 68 69 56
-0.944741 -0.011286 1.330000 132 139 135
-0.766955 -0.011439 1.348000 123 133 128
-0.585363 -0.011617 1.369000 126 130 130
-0.410140 -0.012160 1.433000 63 61 55
-0.209579 -0.012279 1.447000 28 28 22
0.017901 -0.006687 0.788000 67 75 97
0.257038 -0.012882 1.518000 27 24 21
0.355349 -0.009165 1.080000 134 131 128
0.807866 -0.014256 1.680000 137 139 133
1.103243 -0.015046 1.773000 22 31 35
1.377571 -0.015309 1.804000 71 72 59
-0.948127 -0.007775 1.325000 125 136 128
-0.770568 -0.007875 1.342000 130 137 133
-0.589934 -0.007998 1.363000 121 121 121
-0.415603 -0.008368 1.426000 57 54 51
-0.216105 -0.008450 1.440000 27 27 21
0.009894 -0.004741 0.808000 94 101 112
0.255853 -0.008866 1.511000 27 24 21
0.358176 -0.006337 1.080000 135 134 131
0.810330 -0.009835 1.676000 135 137 131
1.101011 -0.010339 1.762000 22 31 35
1.370034 -0.010492 1.788000 66 67 54
-0.942519 -0.004296 1.322000 121 131 126
-0.763625 -0.004342 1.336000 130 136 135
-0.586366 -0.004430 1.363000 126 130 129
-0.411003 -0.004625 1.423000 48 45 42
-0.205110 -0.004521 1.391000 29 29 23
0.009955 -0.002642 0.813000 92 98 112
0.259121 -0.004898 1.507000 26 25 22
0.361672 -0.003516 1.082000 136 133 130
0.812288 -0.005431 1.671000 130 131 128
1.096212 -0.005678 1.747000 21 30 34
1.358569 -0.005743 1.767000 67 65 53
-0.934796 -0.000832 1.316000 119 126 122
-0.756714 -0.000840 1.330000 129 133 132
-0.581514 -0.000859 1.360000 127 132 128
-0.404415 -0.000893 1.413000 43 40 37
-0.193936 -0.000846 1.339000 29 29 23
0.012143 -0.000516 0.817000 83 88 111
0.270238 -0.000950 1.503000 26 25 22
0.367338 -0.000684 1.082000 132 131 128
0.819072 -0.001053 1.667000 120 114 112
1.099032 -0.001098 1.737000 22 31 35
1.356209 -0.001107 1.752000 67 65 53
-0.925790 0.002608 1.313000 130 138 131
-0.748622 0.002638 1.328000 127 131 130
-0.573126 0.002695 1.357000 117 123 123
-0.395331 0.002795 1.407000 40 34 32
-0.179108 0.002548 1.283000 51 52 49
0.010102 0.001639 0.825000 102 109 118
0.285407 0.002979 1.500000 25 24 21
0.372314 0.002145 1.080000 125 124 121
0.829669 0.003301 1.662000 100 100 100
1.106909 0.003432 1.728000 21 30 34
1.351203 0.003432 1.728000 68 66 52
-0.906483 0.006008 1.305000 125 133 126
-0.733056 0.006101 1.325000 126 130 129
-0.560151 0.006262 1.360000 119 118 122
-0.378703 0.006446 1.400000 37 32 27
-0.150623 0.005718 1.242000 91 101 96
0.024885 0.003748 0.814000 59 68 93
0.279416 0.006856 1.489000 27 26 23
0.372565 0.005014 1.089000 124 124 118
0.812075 0.007569 1.644000 117 117 111
1.091508 0.007910 1.718000 21 30 34
1.346039 0.007979 1.733000 70 66 52
-0.909117 0.009382 1.299000 126 134 127
-0.734967 0.009504 1.316000 125 129 128
-0.563518 0.009757 1.351000 116 120 120
-0.382725 0.010024 1.388000 38 33 28
-0.155481 0.008876 1.229000 98 104 103
0.021104 0.006016 0.833000 67 76 101
0.277914 0.010696 1.481000 27 26 23
0.375302 0.007923 1.097000 121 117 110
0.808123 0.011816 1.636000 119 121 115
1.085155 0.012336 1.708000 22 31 35
1.342155 0.012480 1.728000 70 69 52
-0.903518 0.012704 1.291000 111 112 109
-0.732175 0.012901 1.311000 123 127 127
-0.562267 0.013265 1.348000 112 116 115
-0.380795 0.013589 1.381000 37 32 27
-0.151397 0.012025 1.222000 93 97 97
0.023593 0.008305 0.844000 64 73 98
0.311227 0.014682 1.492000 32 26 24
0.388476 0.010529 1.070000 135 137 131
0.842388 0.016099 1.636000 41 44 52
1.118302 0.016768 1.704000 43 54 46
1.362394 0.016807 1.708000 70 69 52
-0.871048 0.015984 1.283000 128 138 126
-0.704717 0.016333 1.311000 119 125 125
-0.538788 0.016943 1.360000 112 112 112
-0.347284 0.016981 1.363000 34 32 26
-0.132742 0.015286 1.227000 105 109 109
0.034764 0.010552 0.847000 49 57 79
0.330758 0.018588 1.492000 30 29 21
0.401354 0.013293 1.067000 132 133 130
0.865915 0.020432 1.640000 32 37 46
1.133914 0.021104 1.694000 57 66 50
1.381509 0.021229 1.704000 70 72 54
-0.856251 0.019388 1.286000 127 135 128
-0.687556 0.019765 1.311000 125 131 124
-0.520986 0.020504 1.360000 87 75 71
-0.323642 0.020187 1.339000 32 33 25
-0.118773 0.018830 1.249000 109 107 107
0.049431 0.013131 0.871000 48 53 74
0.337889 0.022449 1.489000 30 29 21
0.406041 0.016162 1.072000 130 130 130
0.872370 0.024665 1.636000 32 38 45
1.136713 0.025404 1.685000 64 67 54
1.390431 0.025690 1.704000 65 67 49
-0.848905 0.022649 1.280000 126 131 127
-0.680992 0.023091 1.305000 126 133 124
-0.516284 0.024011 1.357000 71 62 57
-0.293997 0.022755 1.286000 32 34 28
-0.101455 0.022613 1.278000 111 109 109
0.126937 0.021623 1.222000 40 46 65
0.387510 0.026542 1.500000 39 34 24
0.666524 0.027692 1.565000 123 124 121
0.935424 0.029178 1.649000 25 32 41
1.200438 0.029974 1.694000 63 66 53
-0.966822 0.025573 1.259000 131 139 132
-0.803869 0.026061 1.283000 135 141 134
-0.631705 0.026447 1.302000 127 133 132
-0.467578 0.027625 1.360000 40 40 34
-0.227188 0.025065 1.234000 91 97 96
-0.038821 0.022608 1.113000 79 72 81
0.148165 0.025167 1.239000 60 67 83
0.401068 0.030306 1.492000 39 35 28
0.680551 0.031870 1.569000 134 134 128
0.945500 0.033394 1.644000 24 32 39
1.213743 0.034409 1.694000 62 65 50
-0.949850 0.028755 1.254000 119 128 119
-0.788585 0.029351 1.280000 127 132 128
-0.616647 0.029787 1.299000 112 118 118
-0.452336 0.031117 1.357000 38 36 30
-0.236880 0.028296 1.234000 98 104 104
-0.066320 0.030062 1.311000 98 96 97
0.137317 0.028181 1.229000 44 51 67
0.389565 0.033891 1.478000 36 32 25
0.672994 0.035794 1.561000 135 135 129
0.936616 0.037514 1.636000 25 32 41
1.202883 0.038638 1.685000 65 66 53
-0.948335 0.031987 1.252000 111 118 114
-0.783657 0.032498 1.272000 127 134 130
-0.614273 0.033060 1.294000 125 131 130
-0.449336 0.034439 1.348000 35 35 29
-0.235920 0.031399 1.229000 97 103 102
-0.067737 0.034209 1.339000 98 97 101
0.145506 0.031782 1.244000 57 64 80
0.387720 0.037582 1.471000 34 33 25
0.659710 0.039575 1.549000 121 121 115
0.920675 0.041465 1.623000 27 34 43
1.187683 0.042819 1.676000 68 69 56
-0.952602 0.035180 1.249000 114 121 112
-0.787210 0.035687 1.267000 125 131 130
-0.617209 0.036222 1.286000 124 130 129
-0.454362 0.037799 1.342000 39 39 33
-0.236496 0.034701 1.232000 97 103 103
-0.063704 0.037405 1.328000 94 97 100
0.140110 0.035321 1.254000 51 54 70
0.369532 0.041123 1.460000 31 30 22
0.633934 0.042982 1.526000 125 130 126
0.894214 0.045235 1.606000 27 34 43
1.157565 0.046700 1.658000 66 68 50
1.414630 0.047461 1.685000 64 65 50
-0.794161 0.038696 1.257000 114 124 119
-0.626753 0.039343 1.278000 125 129 128
-0.463529 0.040882 1.328000 38 39 31
-0.252623 0.037927 1.232000 93 96 99
-0.088958 0.043006 1.397000 103 103 103
0.129914 0.039497 1.283000 42 47 63
0.350118 0.044422 1.443000 32 33 25
0.630610 0.046731 1.518000 117 117 117
0.889203 0.049163 1.597000 27 34 43
1.154074 0.050887 1.653000 68 67 50
1.414630 0.051872 1.685000 65 66 51
-0.788982 0.041887 1.254000 112 123 115
-0.620480 0.042488 1.272000 125 130 126
-0.457974 0.044158 1.322000 36 37 29
-0.254674 0.041486 1.242000 78 80 85
-0.088767 0.046563 1.394000 98 98 98
0.119747 0.044058 1.319000 42 46 65
0.328042 0.047198 1.413000 33 35 24
0.450352 0.038647 1.157000 111 103 96
0.874222 0.052943 1.585000 30 38 45
1.136410 0.054780 1.640000 70 67 50
1.398298 0.055983 1.676000 68 70 52
-0.791108 0.044918 1.247000 122 133 125
-0.626154 0.045746 1.270000 124 125 122
-0.461028 0.047223 1.311000 39 40 32
-0.258964 0.044918 1.247000 81 87 87
-0.092416 0.050213 1.394000 95 93 94
0.114808 0.048340 1.342000 39 43 62
0.315651 0.050105 1.391000 49 49 43
0.432198 0.041388 1.149000 110 105 95
0.848966 0.056516 1.569000 31 39 46
1.110364 0.058605 1.627000 68 66 52
1.376628 0.060190 1.671000 65 63 49
-0.802251 0.047873 1.239000 124 130 129
-0.640248 0.048878 1.265000 117 124 120
-0.476001 0.050423 1.305000 38 37 29
-0.275648 0.047680 1.234000 91 100 99
-0.114314 0.053862 1.394000 99 94 98
0.061311 0.036668 0.949000 42 48 67
0.295304 0.053360 1.381000 85 92 88
0.414616 0.044125 1.142000 90 83 78
0.799651 0.060006 1.553000 38 43 52
1.053987 0.062054 1.606000 67 69 58
1.322511 0.064063 1.658000 63 64 51
-0.831320 0.050911 1.234000 128 136 129
-0.669108 0.051860 1.257000 121 122 119
-0.507038 0.053510 1.297000 38 37 29
-0.299470 0.049508 1.200000 101 99 105
-0.148429 0.056604 1.372000 107 105 106
0.038417 0.038616 0.936000 93 102 113
0.260463 0.057264 1.388000 86 90 90
0.384376 0.047816 1.159000 42 38 31
0.722016 0.062628 1.518000 131 122 117
0.977961 0.065392 1.585000 43 53 41
1.250575 0.068032 1.649000 61 58 48
-0.875855 0.053703 1.224000 125 133 126
-0.714297 0.054580 1.244000 118 122 121
-0.555308 0.056291 1.283000 124 122 122
-0.381212 0.057388 1.308000 102 112 114
-0.202298 0.059143 1.348000 105 104 108
-0.003453 0.043743 0.997000 100 104 109
0.194250 0.059538 1.357000 88 83 92
0.353773 0.053088 1.210000 37 33 26
0.650622 0.065812 1.500000 133 135 129
0.895465 0.068313 1.557000 25 37 45
1.156424 0.070814 1.614000 64 65 50
-0.919552 0.056442 1.214000 126 134 122
-0.757165 0.057140 1.229000 110 118 111
-0.599082 0.058674 1.262000 125 126 123
-0.433002 0.060394 1.299000 100 106 106
-0.251085 0.060812 1.308000 100 109 108
-0.059195 0.057372 1.234000 82 79 83
0.132607 0.064206 1.381000 77 88 87
0.314549 0.061603 1.325000 104 110 103
0.487855 0.059883 1.288000 83 74 75
0.793738 0.070948 1.526000 35 43 50
1.053796 0.074063 1.593000 66 67 54
1.319952 0.076434 1.644000 64 65 52
-0.816681 0.059768 1.217000 124 134 129
-0.658931 0.061094 1.244000 131 133 127
-0.497041 0.062862 1.280000 35 36 28
-0.299291 0.059522 1.212000 88 92 91
-0.143887 0.066938 1.363000 102 106 106
0.038909 0.046557 0.948000 123 130 134
0.252203 0.066938 1.363000 88 86 86
0.379940 0.057165 1.164000 37 33 26
0.701674 0.073666 1.500000 146 139 129
0.948456 0.076465 1.557000 50 58 51
1.214357 0.079461 1.618000 64 62 48
-0.873170 0.062437 1.207000 128 129 126
-0.714173 0.063471 1.227000 121 128 124
-0.559656 0.065696 1.270000 107 101 99
-0.386397 0.066782 1.291000 96 95 99
-0.210990 0.069110 1.336000 84 84 85
-0.011283 0.051574 0.997000 87 87 88
0.185216 0.070817 1.369000 85 81 87
0.349983 0.065437 1.265000 95 97 86
0.614937 0.076093 1.471000 117 114 104
0.851427 0.078731 1.522000 33 42 51
1.116354 0.082404 1.593000 65 66 51
-0.927836 0.064999 1.196000 122 123 120
-0.768903 0.065868 1.212000 127 133 126
-0.614815 0.067770 1.247000 122 127 123
-0.449423 0.069455 1.278000 98 104 103
-0.270850 0.069999 1.288000 101 101 101
-0.091862 0.072444 1.333000 80 84 84
0.106133 0.074238 1.366000 75 81 81
0.280409 0.069564 1.280000 88 86 86
0.422800 0.063749 1.173000 40 36 29
0.747205 0.080922 1.489000 41 47 54
1.001448 0.084618 1.557000 69 70 57
1.256087 0.087009 1.601000 64 63 46
-0.833866 0.068643 1.205000 128 136 129
-0.673973 0.069725 1.224000 121 126 122
-0.517711 0.072061 1.265000 46 40 33
-0.323336 0.068757 1.207000 98 104 104
-0.168639 0.075934 1.333000 103 101 102
0.016887 0.055028 0.966000 96 93 102
0.223656 0.077643 1.363000 89 87 87
0.363808 0.067845 1.191000 58 54 47
0.658640 0.083966 1.474000 164 162 156
0.897611 0.086928 1.526000 25 34 43
1.147638 0.089606 1.573000 65 63 49
-0.891152 0.071082 1.193000 119 120 117
-0.732788 0.072095 1.210000 119 126 122
-0.581224 0.074598 1.252000 114 115 112
-0.412619 0.076147 1.278000 103 102 106
-0.237388 0.077934 1.308000 100 100 101
-0.040835 0.064886 1.089000 74 72 73
0.153294 0.081748 1.372000 125 127 132
0.318152 0.074896 1.257000 103 104 101
0.571993 0.086395 1.450000 44 40 33
0.795739 0.088481 1.485000 38 45 56
1.059857 0.093247 1.565000 65 63 49
1.331860 0.096941 1.627000 69 64 47
-0.790064 0.074392 1.196000 118 132 127
-0.638116 0.076445 1.229000 125 131 130
-0.473813 0.078000 1.254000 60 52 57
-0.297240 0.078187 1.257000 98 107 106
-0.126475 0.082727 1.330000 84 84 85
0.054709 0.059962 0.964000 90 94 99
0.266607 0.081545 1.311000 84 88 87
0.399548 0.072091 1.159000 36 35 27
0.720383 0.091684 1.474000 84 86 80
0.963424 0.095105 1.529000 64 63 46
1.216615 0.098091 1.577000 65 63 49
-0.842887 0.077199 1.191000 118 125 121
-0.683572 0.078236 1.207000 123 128 124
-0.530783 0.080959 1.249000 67 67 61
-0.343714 0.078561 1.212000 86 90 90
-0.185595 0.084589 1.305000 96 104 106
0.009271 0.062421 0.963000 93 88 97
0.212482 0.088154 1.360000 88 87 84
0.362787 0.079014 1.219000 114 118 117
0.644739 0.094636 1.460000 133 132 124
0.874464 0.097228 1.500000 26 35 46
1.127812 0.100923 1.557000 64 66 48
-0.892133 0.079980 1.186000 128 130 124
-0.731794 0.080789 1.198000 128 133 129
-0.580738 0.083420 1.237000 121 126 122
-0.414061 0.085105 1.262000 98 107 106
-0.240129 0.086724 1.286000 93 91 92
-0.036205 0.070000 1.038000 81 81 81
0.155171 0.091512 1.357000 126 123 127
0.318885 0.084094 1.247000 109 109 110
0.576787 0.097312 1.443000 37 33 26
0.795940 0.099200 1.471000 38 52 60
1.051672 0.103920 1.541000 62 63 48
1.323079 0.108304 1.606000 61 66 46
-0.777407 0.083435 1.191000 123 135 125
-0.623349 0.085397 1.219000 121 126 122
-0.459524 0.087008 1.242000 77 72 67
-0.288511 0.088409 1.262000 102 107 110
-0.113848 0.091422 1.305000 86 85 89
0.062797 0.068093 0.972000 84 82 88
0.273471 0.091842 1.311000 82 80 81
0.406666 0.081404 1.162000 52 53 45
0.719704 0.102070 1.457000 86 86 80
0.961899 0.106063 1.514000 65 67 49
1.209338 0.109076 1.557000 61 59 47
-0.822047 0.085681 1.179000 114 120 119
-0.665929 0.087062 1.198000 126 133 129
-0.511486 0.089678 1.234000 42 38 31
-0.327198 0.087062 1.198000 93 97 96
-0.171139 0.094402 1.299000 94 97 100
0.019356 0.069984 0.963000 74 66 64
0.218634 0.098399 1.354000 85 81 82
0.368564 0.088443 1.217000 112 112 112
0.641010 0.104867 1.443000 105 96 97
0.865508 0.107411 1.478000 25 38 44
1.120257 0.111989 1.541000 62 65 50
-0.874630 0.088467 1.175000 124 131 127
-0.716958 0.089521 1.189000 123 130 126
-0.564098 0.092006 1.222000 84 84 78
-0.399986 0.094039 1.249000 86 97 96
-0.228061 0.095996 1.275000 93 99 98
-0.027160 0.075667 1.005000 105 116 120
0.153112 0.100815 1.339000 107 105 111
0.320164 0.094264 1.252000 117 115 115
0.569992 0.107365 1.426000 33 33 22
0.789988 0.109925 1.460000 45 57 65
1.038706 0.114593 1.522000 63 64 49
1.302483 0.119035 1.581000 61 65 47
-0.764829 0.092400 1.186000 126 134 127
-0.605719 0.093725 1.203000 124 131 127
-0.444338 0.095594 1.227000 83 87 87
-0.277495 0.097932 1.257000 100 105 108
-0.101852 0.099957 1.283000 85 83 84
0.071011 0.076351 0.980000 69 63 69
0.277342 0.101048 1.297000 104 108 107
0.414172 0.090842 1.166000 103 106 98
0.718552 0.112734 1.447000 88 89 81
0.954380 0.116552 1.496000 65 70 57
1.197827 0.119746 1.537000 58 63 48
-0.806583 0.094217 1.170000 124 134 129
-0.651588 0.095747 1.189000 128 128 128
-0.495694 0.098163 1.219000 34 33 25
-0.316463 0.096069 1.193000 99 105 105
-0.159574 0.103719 1.288000 79 82 85
0.029379 0.077387 0.961000 101 105 105
0.238840 0.108551 1.348000 88 86 86
0.377806 0.095505 1.186000 107 107 107
0.657698 0.115154 1.430000 93 93 87
0.882110 0.118133 1.467000 69 70 62
1.133323 0.122884 1.526000 59 65 47
-0.848014 0.097114 1.168000 124 133 131
-0.689321 0.098028 1.179000 125 132 128
-0.534167 0.100190 1.205000 47 43 36
