-1.004737 -1.416120 2.280000 135 138 146
-0.998830 -1.586924 2.555000 136 139 142
-0.814077 -1.481957 2.386000 131 135 140
-0.732697 -1.561459 2.514000 130 133 141
-0.551085 -1.416120 2.280000 129 130 138
-0.476640 -1.542204 2.483000 133 134 142
-0.361947 -1.580713 2.545000 127 131 136
-0.235352 -1.580713 2.545000 128 130 142
-0.111535 -1.621085 2.610000 130 133 141
0.017761 -1.573881 2.534000 132 135 143
0.136488 -1.493758 2.405000 135 131 142
0.261230 -1.523571 2.453000 136 133 142
0.369969 -1.470777 2.368000 136 132 143
0.469633 -1.416120 2.280000 137 135 141
0.589695 -1.432269 2.306000 134 136 141
0.770993 -1.567670 2.524000 134 136 141
0.837934 -1.465187 2.359000 134 135 143
0.926525 -1.421089 2.288000 135 137 142
1.017601 -1.390033 2.238000 135 134 138
1.133465 -1.395623 2.247000 135 134 138
1.245237 -1.395623 2.247000 127 133 133
1.372106 -1.411151 2.272000 133 133 133
1.426946 -1.355873 2.183000 124 130 129
1.580552 -1.395623 2.247000 130 131 128
1.661444 -1.370158 2.206000 121 128 124
1.844239 -1.426679 2.297000 124 124 124
-1.766810 -1.567247 2.534000 115 119 118
-1.647884 -1.574050 2.545000 116 118 112
-1.260070 -1.303771 2.108000 144 140 140
-1.139320 -1.285835 2.079000 144 144 144
-1.046369 -1.298823 2.100000 144 144 145
-1.000218 -1.379226 2.230000 135 141 148
-1.023284 -1.587038 2.566000 137 139 144
-0.839449 -1.487462 2.405000 132 137 140
-0.752442 -1.554877 2.514000 131 134 142
-0.570989 -1.415099 2.288000 130 130 140
-0.494144 -1.529519 2.473000 132 133 141
-0.380285 -1.567247 2.534000 127 130 138
-0.255340 -1.574050 2.545000 128 131 139
-0.131477 -1.607448 2.599000 130 132 142
-0.002141 -1.567247 2.534000 130 133 141
0.117599 -1.487462 2.405000 133 134 142
0.240978 -1.510964 2.443000 132 133 141
0.351370 -1.464578 2.368000 133 134 142
0.451726 -1.410151 2.280000 135 133 139
0.571583 -1.426231 2.306000 136 134 140
0.741943 -1.541888 2.493000 134 136 141
0.822532 -1.464578 2.368000 134 136 141
0.908555 -1.415099 2.288000 135 138 141
1.000024 -1.384174 2.238000 137 133 139
1.119790 -1.394689 2.255000 129 133 133
1.218301 -1.379226 2.230000 128 133 136
1.363799 -1.415099 2.288000 127 131 130
1.429820 -1.369331 2.214000 130 134 134
1.551079 -1.379226 2.230000 125 132 128
1.650080 -1.369331 2.214000 123 128 124
1.868336 -1.453445 2.350000 123 128 124
-1.785773 -1.548295 2.514000 118 124 117
-1.687805 -1.573546 2.555000 107 113 106
-1.397616 -1.409109 2.288000 125 124 116
-1.162607 -1.276081 2.072000 145 145 145
-1.070279 -1.289014 2.093000 143 143 144
-1.004020 -1.339515 2.175000 138 142 147
-1.048224 -1.567387 2.545000 133 138 141
-0.884692 -1.504568 2.443000 133 136 139
-0.760359 -1.499025 2.434000 130 134 139
-0.619587 -1.452835 2.359000 130 131 139
-0.516083 -1.492867 2.424000 133 134 142
-0.415250 -1.567387 2.545000 128 131 139
-0.293532 -1.593869 2.588000 129 130 138
-0.161360 -1.560612 2.534000 130 132 137
-0.035911 -1.587095 2.577000 130 133 141
0.086797 -1.492867 2.424000 134 134 144
0.207373 -1.492867 2.424000 133 134 142
0.324161 -1.475623 2.396000 132 133 141
0.426691 -1.420194 2.306000 133 135 140
0.539284 -1.414651 2.297000 134 136 141
0.676305 -1.463921 2.377000 134 137 140
0.797551 -1.469464 2.386000 136 134 140
0.882061 -1.414651 2.297000 135 133 139
0.974632 -1.383858 2.247000 135 133 139
1.078184 -1.373388 2.230000 132 135 138
1.180578 -1.363534 2.214000 132 131 135
1.344342 -1.420194 2.306000 127 131 131
1.410962 -1.373388 2.230000 128 132 132
1.494590 -1.348753 2.190000 124 131 127
1.615241 -1.358607 2.206000 123 127 127
1.809424 -1.425121 2.314000 123 128 124
1.834705 -1.358607 2.206000 125 128 120
-1.742096 -1.573602 2.566000 110 117 113
-1.568527 -1.528835 2.493000 116 119 111
-1.184355 -1.253485 2.044000 152 147 142
-1.101220 -1.274949 2.079000 143 143 144
-1.011723 -1.292733 2.108000 141 144 147
-1.030764 -1.469350 2.396000 134 138 143
-0.956475 -1.541713 2.514000 134 138 143
-0.786114 -1.457698 2.377000 131 135 140
-0.703279 -1.534967 2.503000 132 133 141
-0.533220 -1.414157 2.306000 132 133 141
-0.461890 -1.560724 2.545000 130 133 141
-0.335295 -1.560724 2.545000 126 127 135
-0.201976 -1.510437 2.463000 129 129 139
-0.082783 -1.573602 2.566000 128 131 139
0.043581 -1.528835 2.493000 131 134 142
0.160396 -1.463217 2.386000 133 133 143
0.283526 -1.486521 2.424000 135 132 141
0.390266 -1.435621 2.341000 133 134 142
0.491778 -1.393307 2.272000 133 135 140
0.613844 -1.414157 2.306000 131 135 140
0.781311 -1.516570 2.473000 136 134 140
0.852764 -1.430102 2.332000 134 136 141
0.940100 -1.387787 2.263000 130 133 136
1.041038 -1.372456 2.238000 132 134 139
1.152362 -1.372456 2.238000 133 133 134
1.282884 -1.393307 2.272000 128 132 132
1.380539 -1.377975 2.247000 128 132 132
1.414607 -1.306225 2.130000 126 130 129
1.574814 -1.352832 2.206000 127 131 130
1.696764 -1.362644 2.222000 123 130 126
1.868294 -1.408638 2.297000 125 126 123
-1.825916 -1.541238 2.524000 121 123 117
-1.728660 -1.566885 2.566000 109 116 112
-1.542995 -1.510096 2.473000 116 119 111
-1.177672 -1.252408 2.051000 152 146 144
-1.090334 -1.269506 2.079000 144 144 145
-1.014452 -1.304923 2.137000 139 142 145
-1.034367 -1.486281 2.434000 136 139 142
-0.935432 -1.522308 2.493000 133 138 141
-0.776597 -1.456971 2.386000 131 135 140
-0.690173 -1.528415 2.503000 130 133 141
-0.527022 -1.423996 2.332000 130 131 139
-0.452266 -1.566885 2.566000 130 131 139
-0.319313 -1.541238 2.524000 129 130 138
-0.188312 -1.497883 2.453000 129 130 138
-0.069347 -1.566885 2.566000 128 131 139
0.055498 -1.491777 2.443000 133 134 142
0.172889 -1.456971 2.386000 133 134 142
0.292797 -1.463077 2.396000 133 134 142
0.399428 -1.418501 2.323000 133 134 142
0.499905 -1.376978 2.255000 133 135 140
0.621032 -1.397129 2.288000 134 137 140
0.778523 -1.480175 2.424000 136 134 140
0.858298 -1.413005 2.314000 136 134 140
0.948584 -1.376978 2.255000 130 133 136
1.056990 -1.372093 2.247000 130 132 137
1.164080 -1.366597 2.238000 135 135 136
1.299339 -1.392244 2.280000 131 131 132
1.386728 -1.366597 2.238000 127 131 130
1.420405 -1.295763 2.122000 124 130 129
1.580611 -1.342172 2.198000 126 126 126
1.727620 -1.372093 2.247000 123 128 124
1.872954 -1.397129 2.288000 124 126 120
-1.845009 -1.528550 2.514000 122 124 118
-1.755532 -1.560167 2.566000 114 119 115
-1.594903 -1.528550 2.514000 117 119 113
-1.199150 -1.247039 2.051000 152 147 142
-1.112106 -1.264063 2.079000 146 144 145
-1.018880 -1.276832 2.100000 142 146 146
-1.007604 -1.406947 2.314000 137 139 144
-0.969639 -1.528550 2.514000 133 137 142
-0.801584 -1.450724 2.386000 133 135 140
-0.728406 -1.547398 2.545000 132 134 139
-0.543167 -1.396611 2.297000 128 132 137
-0.473162 -1.540710 2.534000 128 131 139
-0.344374 -1.528550 2.514000 123 126 134
-0.209812 -1.462276 2.405000 129 130 138
-0.095019 -1.540710 2.534000 130 133 141
0.030160 -1.497541 2.463000 131 134 142
0.145671 -1.428835 2.350000 130 131 139
0.267706 -1.456804 2.396000 132 133 141
0.373648 -1.406947 2.314000 132 133 141
0.476291 -1.371074 2.255000 132 134 139
0.592897 -1.381410 2.272000 133 135 140
0.756245 -1.479909 2.434000 136 134 140
0.837310 -1.412419 2.323000 136 134 140
0.931942 -1.381410 2.272000 132 135 138
1.044957 -1.381410 2.272000 133 136 139
1.149308 -1.371074 2.255000 130 133 136
1.261478 -1.371074 2.255000 129 132 135
1.368774 -1.366210 2.247000 131 131 131
1.412679 -1.303584 2.144000 127 131 130
1.557594 -1.336417 2.198000 123 128 124
1.679062 -1.346145 2.214000 122 126 125
1.913644 -1.439780 2.368000 122 127 123
-1.861262 -1.503201 2.483000 126 128 117
-1.781142 -1.540735 2.545000 116 121 117
-1.634394 -1.521968 2.514000 115 117 111
-1.305814 -1.316739 2.175000 138 134 127
-1.140909 -1.254383 2.072000 146 144 144
-1.055874 -1.276177 2.108000 144 144 145
-0.984853 -1.321582 2.183000 137 141 146
-1.009129 -1.521968 2.514000 136 139 142
-0.855943 -1.473536 2.434000 130 134 139
-0.768383 -1.540735 2.545000 133 134 142
-0.588074 -1.411786 2.332000 130 133 141
-0.500618 -1.497147 2.473000 130 133 141
-0.388598 -1.540735 2.545000 127 130 138
-0.251503 -1.478985 2.443000 129 131 136
-0.133174 -1.515309 2.503000 128 131 139
-0.008668 -1.515309 2.503000 130 133 141
0.107507 -1.406337 2.323000 132 133 141
0.230069 -1.450531 2.396000 135 132 141
0.333510 -1.385148 2.288000 133 134 142
0.442433 -1.370013 2.263000 133 135 140
0.557208 -1.375462 2.272000 133 135 140
0.695887 -1.428132 2.359000 133 135 140
0.800820 -1.406337 2.323000 136 134 140
0.902565 -1.385148 2.288000 132 135 138
1.005270 -1.370013 2.263000 132 135 138
1.122283 -1.375462 2.272000 129 132 135
1.212463 -1.350035 2.230000 130 134 134
1.353061 -1.380305 2.280000 130 130 131
1.418878 -1.335506 2.206000 126 130 129
1.523067 -1.330663 2.198000 125 129 128
1.644284 -1.340349 2.214000 123 128 124
1.920822 -1.467482 2.424000 122 127 123
-1.906766 -1.496700 2.483000 109 112 99
-1.827782 -1.534073 2.545000 124 124 118
-1.701187 -1.534073 2.545000 109 114 110
-1.494161 -1.455711 2.415000 119 120 112
-1.174898 -1.244739 2.065000 150 147 144
-1.083083 -1.257397 2.086000 144 144 145
-1.006549 -1.292358 2.144000 140 143 146
-1.009451 -1.449684 2.405000 136 139 142
-0.914979 -1.490672 2.473000 131 135 140
-0.773391 -1.455711 2.415000 130 134 139
-0.663542 -1.478617 2.453000 130 133 141
-0.524746 -1.432806 2.377000 128 132 137
-0.438830 -1.546731 2.566000 130 132 137
-0.299912 -1.490672 2.473000 128 132 137
-0.173393 -1.461136 2.424000 130 131 139
-0.055214 -1.527442 2.534000 128 131 139
0.065942 -1.421956 2.359000 132 133 141
0.183984 -1.427381 2.368000 132 133 141
0.296040 -1.400256 2.323000 130 131 139
0.403973 -1.374336 2.280000 133 135 140
0.511713 -1.359267 2.255000 133 135 140
0.630799 -1.374336 2.280000 133 135 140
0.761185 -1.405681 2.332000 136 134 140
0.870414 -1.394831 2.314000 135 134 138
0.956984 -1.354444 2.247000 130 133 136
1.084451 -1.374336 2.280000 130 133 136
1.184730 -1.359267 2.255000 130 133 136
1.306677 -1.369514 2.272000 133 133 134
1.404070 -1.354444 2.247000 125 129 128
1.457151 -1.302003 2.160000 127 131 130
1.597915 -1.329730 2.206000 122 127 123
1.785056 -1.390008 2.306000 126 127 124
1.936012 -1.416531 2.350000 119 125 118
-1.858172 -1.508805 2.514000 126 127 119
-1.768968 -1.540013 2.566000 119 120 117
-1.594634 -1.496201 2.493000 114 116 110
-1.247643 -1.269340 2.115000 150 147 144
-1.126773 -1.251936 2.086000 147 145 145
-1.033799 -1.265139 2.108000 140 144 144
-0.979178 -1.333558 2.222000 136 139 142
-0.970683 -1.490200 2.483000 135 137 142
-0.811006 -1.426583 2.377000 131 135 140
-0.732697 -1.508805 2.514000 132 133 141
-0.557369 -1.383971 2.306000 128 131 139
-0.480479 -1.502203 2.503000 128 132 137
-0.358960 -1.514806 2.524000 126 129 137
-0.221573 -1.437986 2.396000 130 132 137
-0.106107 -1.490200 2.483000 128 131 139
0.016990 -1.454790 2.424000 130 133 141
0.130869 -1.383971 2.306000 135 132 141
0.254095 -1.431984 2.386000 132 134 139
0.351064 -1.348562 2.247000 133 134 142
0.464484 -1.353363 2.255000 132 134 139
0.581000 -1.363566 2.272000 133 135 140
0.717842 -1.410378 2.350000 136 135 139
0.821949 -1.388772 2.314000 135 134 138
0.920046 -1.363566 2.272000 132 131 135
1.040336 -1.373168 2.288000 130 134 134
1.146076 -1.363566 2.272000 128 131 134
1.240249 -1.343160 2.238000 127 131 131
1.366671 -1.358164 2.263000 131 131 131
1.426946 -1.310151 2.183000 126 130 129
1.551712 -1.323955 2.206000 125 129 128
1.673495 -1.333558 2.222000 122 127 123
1.938981 -1.449389 2.415000 125 127 121
-1.915571 -1.495650 2.503000 108 113 100
-1.844018 -1.539868 2.577000 123 123 117
-1.687200 -1.514174 2.534000 112 117 113
-1.469973 -1.425737 2.386000 125 122 119
-1.181385 -1.246475 2.086000 149 146 143
-1.081238 -1.250657 2.093000 144 142 143
-1.000936 -1.281132 2.144000 143 143 144
-0.991475 -1.420360 2.377000 137 140 143
-0.901157 -1.465773 2.453000 132 137 140
-0.763893 -1.437091 2.405000 131 135 140
-0.646940 -1.443066 2.415000 132 133 141
-0.526812 -1.443066 2.415000 128 131 139
-0.432112 -1.533295 2.566000 130 132 137
-0.292251 -1.471748 2.463000 128 132 137
-0.167736 -1.454419 2.434000 129 131 136
-0.048197 -1.502223 2.514000 130 131 139
0.071017 -1.388092 2.323000 130 131 139
0.187292 -1.393470 2.332000 133 134 142
0.296529 -1.362398 2.280000 132 133 141
0.406885 -1.352240 2.263000 133 135 140
0.517616 -1.347459 2.255000 132 134 139
0.636768 -1.362398 2.280000 133 135 140
0.752813 -1.367178 2.288000 137 136 140
0.876472 -1.382714 2.314000 133 132 136
0.962867 -1.342679 2.247000 131 130 134
1.090421 -1.362398 2.280000 129 132 135
1.190634 -1.347459 2.255000 129 133 133
1.307425 -1.352240 2.263000 130 130 131
1.414973 -1.347459 2.255000 129 129 129
1.499376 -1.322960 2.214000 125 129 128
1.626953 -1.337301 2.238000 125 129 128
1.811288 -1.393470 2.332000 124 125 122
1.980181 -1.431713 2.396000 122 124 118
-1.871336 -1.495641 2.514000 128 130 119
-1.790044 -1.533121 2.577000 118 119 116
-1.601239 -1.477198 2.483000 108 113 109
-1.299186 -1.298721 2.183000 142 141 138
-1.141513 -1.245178 2.093000 146 144 144
-1.048306 -1.258266 2.115000 144 144 145
-0.969855 -1.293962 2.175000 137 140 143
-0.967838 -1.453402 2.443000 136 138 143
-0.820335 -1.408782 2.368000 131 135 140
-0.730729 -1.465300 2.463000 132 133 141
-0.575864 -1.387365 2.332000 130 131 139
-0.487669 -1.471249 2.473000 128 132 137
-0.375272 -1.514084 2.545000 128 132 137
-0.236854 -1.442098 2.424000 128 131 139
-0.118629 -1.471249 2.473000 130 131 139
0.004264 -1.430794 2.405000 130 132 142
0.118331 -1.366543 2.297000 135 132 141
0.238868 -1.403428 2.359000 133 130 139
0.335524 -1.321923 2.222000 132 134 139
0.452676 -1.341556 2.255000 132 134 139
0.566850 -1.346315 2.263000 132 134 139
0.692327 -1.371897 2.306000 132 135 138
0.800734 -1.361188 2.288000 130 133 136
0.911347 -1.356429 2.280000 133 133 134
1.032401 -1.366543 2.297000 133 133 134
1.129687 -1.346315 2.263000 129 133 133
1.219748 -1.321923 2.222000 128 132 132
1.360210 -1.351669 2.272000 127 131 130
1.435616 -1.317164 2.214000 125 130 126
1.574372 -1.341556 2.255000 123 128 124
1.680558 -1.336796 2.247000 123 128 124
1.926335 -1.436744 2.415000 123 125 119
-1.965832 -1.500906 2.534000 112 117 104
-1.871004 -1.526375 2.577000 122 124 118
-1.727939 -1.513344 2.555000 116 117 114
-1.525034 -1.441675 2.434000 114 113 110
-1.215919 -1.248583 2.108000 151 148 145
-1.103156 -1.239698 2.093000 146 144 145
-1.016706 -1.261614 2.130000 143 143 144
-0.967623 -1.340390 2.263000 136 139 142
-0.912487 -1.430421 2.415000 133 137 142
-0.765127 -1.381260 2.332000 133 135 140
-0.669447 -1.424498 2.405000 132 134 139
-0.547759 -1.419167 2.396000 132 133 141
-0.447715 -1.482544 2.503000 130 132 137
-0.318044 -1.458852 2.463000 124 127 135
-0.192432 -1.435752 2.424000 129 130 138
-0.073012 -1.458852 2.463000 130 131 139
0.046871 -1.381260 2.332000 133 134 142
0.159798 -1.355198 2.288000 135 132 141
0.277794 -1.375929 2.323000 132 133 141
0.380478 -1.330914 2.247000 132 134 139
0.490278 -1.325583 2.238000 133 135 140
0.610741 -1.345721 2.272000 132 134 139
0.720889 -1.340390 2.263000 135 135 136
0.855555 -1.375929 2.323000 132 132 133
0.942680 -1.335652 2.255000 132 132 133
1.074496 -1.360529 2.297000 132 132 132
1.171159 -1.340390 2.263000 128 132 132
1.260469 -1.316106 2.222000 127 131 131
1.401847 -1.345721 2.272000 125 129 128
1.486859 -1.320844 2.230000 123 128 124
1.627878 -1.345721 2.272000 123 128 124
1.747023 -1.350460 2.280000 122 126 125
1.977937 -1.435752 2.424000 123 125 119
-1.919394 -1.494272 2.534000 121 124 111
-1.839347 -1.532601 2.599000 122 123 120
-1.660718 -1.488375 2.524000 109 114 110
-1.402574 -1.359822 2.306000 128 125 122
-1.177288 -1.243064 2.108000 149 146 143
-1.072430 -1.243064 2.108000 144 144 145
-0.980884 -1.260165 2.137000 142 141 145
-0.965439 -1.391076 2.359000 136 138 143
-0.848097 -1.391076 2.359000 132 136 141
-0.745003 -1.418202 2.405000 132 134 139
-0.608731 -1.380462 2.341000 132 133 141
-0.515835 -1.446507 2.453000 130 133 141
-0.403610 -1.482478 2.514000 130 132 137
-0.271798 -1.446507 2.453000 127 130 138
-0.149780 -1.446507 2.453000 129 130 138
-0.027433 -1.429406 2.424000 129 130 138
0.088263 -1.354515 2.297000 132 133 141
0.201728 -1.349208 2.288000 135 132 141
0.305334 -1.305571 2.214000 130 131 139
0.421657 -1.325031 2.247000 132 134 139
0.537227 -1.334466 2.263000 130 132 137
0.654675 -1.344491 2.280000 133 135 140
0.759667 -1.329748 2.255000 133 132 136
0.888074 -1.354515 2.297000 132 132 132
0.998406 -1.349208 2.288000 132 131 135
1.104439 -1.339773 2.272000 129 133 133
1.194948 -1.315006 2.230000 127 131 131
1.330469 -1.339773 2.272000 127 131 130
1.427601 -1.325031 2.247000 123 127 126
1.567461 -1.349208 2.288000 122 127 123
1.675393 -1.344491 2.280000 122 127 123
1.850787 -1.391076 2.359000 124 125 122
2.030703 -1.435303 2.434000 123 126 118
-1.881085 -1.494095 2.545000 124 124 118
-1.776551 -1.512881 2.577000 121 122 119
-1.575445 -1.445955 2.463000 108 109 106
-1.287756 -1.281576 2.183000 146 145 142
-1.138656 -1.237545 2.108000 147 145 145
-1.040665 -1.245764 2.122000 144 144 145
-0.958467 -1.276879 2.175000 136 138 143
-0.918689 -1.379616 2.350000 135 137 142
-0.777911 -1.338522 2.280000 131 135 140
-0.692768 -1.395467 2.377000 133 134 142
-0.563654 -1.369049 2.332000 132 134 139
-0.470881 -1.440085 2.453000 128 132 137
-0.355973 -1.469438 2.503000 126 129 137
-0.225087 -1.428930 2.434000 127 130 138
-0.104825 -1.440085 2.453000 130 131 139
0.016345 -1.369049 2.332000 132 133 141
0.128429 -1.328541 2.263000 133 131 137
0.248344 -1.369049 2.332000 133 130 139
0.344658 -1.295078 2.206000 132 134 139
0.464484 -1.323845 2.255000 133 135 140
0.583046 -1.338522 2.280000 136 134 140
0.694015 -1.333825 2.272000 132 135 138
0.819108 -1.353785 2.306000 130 133 136
0.906278 -1.313864 2.238000 131 131 132
1.052158 -1.358482 2.314000 131 131 132
1.133465 -1.319148 2.247000 129 133 133
1.222516 -1.295078 2.206000 127 131 131
1.381769 -1.343218 2.288000 125 129 128
1.462897 -1.313864 2.238000 123 130 126
1.622053 -1.353785 2.306000 121 126 122
1.717177 -1.338522 2.280000 121 126 122
1.930952 -1.411905 2.405000 123 124 121
-1.977222 -1.499706 2.566000 114 116 105
-1.865440 -1.512564 2.588000 122 123 120
-1.707850 -1.487432 2.545000 117 117 117
-1.482466 -1.394504 2.386000 118 118 112
-1.208883 -1.236118 2.115000 150 147 144
-1.095850 -1.227351 2.100000 146 144 144
-1.008858 -1.248976 2.137000 140 140 141
-0.949016 -1.313265 2.247000 136 139 142
-0.865563 -1.357684 2.323000 132 136 141
-0.750010 -1.357684 2.323000 132 134 139
-0.634458 -1.357684 2.323000 132 133 141
-0.539457 -1.411454 2.415000 129 131 136
-0.427663 -1.439507 2.463000 132 134 139
-0.297962 -1.405609 2.405000 127 130 138
-0.179739 -1.416713 2.424000 129 130 138
-0.058944 -1.411454 2.415000 129 130 138
0.058195 -1.342488 2.297000 130 131 139
0.168700 -1.313265 2.247000 132 133 141
0.283592 -1.327877 2.272000 133 130 139
0.389276 -1.303330 2.230000 133 131 137
0.504015 -1.313265 2.247000 135 133 139
0.624830 -1.332552 2.280000 133 132 136
0.735653 -1.327877 2.272000 133 133 134
0.864356 -1.352424 2.314000 132 131 135
0.965069 -1.332552 2.280000 132 132 133
1.082266 -1.337228 2.288000 132 132 133
1.169939 -1.308005 2.238000 130 130 131
1.281263 -1.308005 2.238000 125 129 128
1.418722 -1.332552 2.280000 126 127 124
1.532135 -1.332552 2.280000 121 128 124
1.664313 -1.347748 2.306000 124 125 122
1.785191 -1.352424 2.314000 120 126 119
2.014444 -1.433663 2.453000 121 126 122
-1.915233 -1.486588 2.555000 127 128 120
-1.811236 -1.505788 2.588000 123 123 123
-1.627242 -1.456332 2.503000 111 115 114
-1.343637 -1.302146 2.238000 127 126 123
-1.160731 -1.226508 2.108000 149 146 143
-1.062886 -1.234653 2.122000 144 144 145
-0.967258 -1.247454 2.144000 142 140 146
-0.928848 -1.346366 2.314000 136 138 143
-0.792996 -1.312037 2.255000 133 136 139
-0.712226 -1.372548 2.359000 133 134 142
-0.581518 -1.341711 2.306000 130 131 139
-0.492723 -1.416186 2.434000 129 131 136
-0.370123 -1.410367 2.424000 130 132 137
-0.251503 -1.421422 2.443000 129 130 138
-0.130514 -1.427241 2.453000 128 129 137
-0.008045 -1.351602 2.323000 132 133 141
0.105147 -1.321929 2.272000 130 132 137
0.218930 -1.326583 2.280000 130 131 139
0.320391 -1.278873 2.198000 135 133 139
0.440869 -1.312037 2.255000 130 132 137
0.557208 -1.321929 2.272000 135 133 139
0.672583 -1.326583 2.280000 132 131 135
0.794959 -1.341711 2.306000 132 132 133
0.882841 -1.302146 2.238000 132 132 132
1.035922 -1.356839 2.332000 132 132 133
1.109934 -1.307383 2.247000 130 130 130
1.199414 -1.283527 2.206000 127 131 131
1.363150 -1.336474 2.297000 125 129 128
1.455540 -1.316692 2.263000 123 129 122
1.597904 -1.341711 2.306000 122 127 123
1.699242 -1.331238 2.288000 121 127 120
1.876447 -1.377785 2.368000 125 126 123
-1.995502 -1.479899 2.555000 111 116 103
-1.861097 -1.474107 2.545000 125 126 118
-1.741317 -1.479899 2.555000 115 119 118
-1.525774 -1.398808 2.415000 105 106 103
-1.252567 -1.246474 2.152000 153 147 145
-1.122100 -1.220989 2.108000 148 146 146
-1.027859 -1.233732 2.130000 144 144 145
-0.947876 -1.268485 2.190000 137 139 144
-0.873417 -1.320614 2.280000 135 138 141
-0.757337 -1.315980 2.272000 132 136 141
-0.656233 -1.340307 2.314000 132 133 141
-0.547442 -1.355946 2.341000 129 131 136
-0.444619 -1.398808 2.415000 129 131 136
-0.316966 -1.366372 2.359000 123 124 132
-0.205970 -1.409813 2.434000 129 130 138
-0.083571 -1.387803 2.396000 129 130 138
0.034007 -1.325248 2.288000 129 130 138
0.144071 -1.291653 2.230000 130 131 139
0.261629 -1.325248 2.288000 130 131 139
0.361985 -1.277752 2.206000 132 134 139
0.482195 -1.306134 2.255000 130 132 137
0.605434 -1.330461 2.297000 130 133 136
0.719693 -1.330461 2.297000 130 134 134
0.846659 -1.350733 2.332000 132 132 133
0.927570 -1.301500 2.247000 133 133 134
1.070332 -1.340307 2.314000 130 130 131
1.146503 -1.296287 2.238000 130 130 130
1.253330 -1.291653 2.230000 125 129 128
1.405245 -1.330461 2.297000 125 129 128
1.502966 -1.315980 2.272000 128 129 126
1.640164 -1.335674 2.306000 122 127 123
1.754870 -1.335674 2.306000 123 124 121
1.980649 -1.415026 2.443000 122 122 122
-1.965458 -1.485895 2.577000 116 120 109
-1.806614 -1.461101 2.534000 124 124 118
-1.667302 -1.449569 2.514000 117 117 117
-1.414649 -1.329636 2.306000 127 127 121
-1.179870 -1.206821 2.093000 152 146 144
-1.087066 -1.219506 2.115000 146 144 144
-0.992074 -1.232191 2.137000 140 139 143
-0.934684 -1.300230 2.255000 137 140 143
-0.810478 -1.281202 2.222000 133 135 140
-0.731765 -1.339439 2.323000 133 135 140
-0.606929 -1.319258 2.288000 130 132 137
-0.518334 -1.386720 2.405000 129 131 136
-0.392569 -1.365386 2.368000 129 131 136
-0.274779 -1.365386 2.368000 128 131 139
-0.158182 -1.375764 2.386000 129 130 138
-0.038453 -1.339439 2.323000 129 130 138
0.075672 -1.314645 2.280000 130 131 139
0.184275 -1.281202 2.222000 129 130 138
0.295864 -1.285815 2.230000 132 130 136
0.406790 -1.285815 2.230000 130 132 137
0.525377 -1.304843 2.263000 133 131 137
0.647530 -1.324447 2.297000 133 132 136
0.776381 -1.349818 2.341000 132 132 133
0.866512 -1.310032 2.272000 133 131 132
1.001515 -1.339439 2.323000 131 131 132
1.104565 -1.324447 2.297000 133 131 131
1.179027 -1.281202 2.222000 130 130 131
1.333082 -1.324447 2.297000 125 130 126
1.453011 -1.329636 2.306000 126 127 124
1.555481 -1.319258 2.288000 125 126 123
1.682424 -1.329636 2.306000 125 126 123
1.817393 -1.344628 2.332000 120 125 121
2.050292 -1.425929 2.473000 120 124 123
-1.894411 -1.460781 2.545000 126 126 120
-1.767816 -1.460781 2.545000 123 125 119
-1.594790 -1.419454 2.473000 112 116 115
-1.331919 -1.284569 2.238000 130 131 128
-1.145331 -1.205359 2.100000 150 147 144
-1.051776 -1.217987 2.122000 144 143 147
-0.959599 -1.235206 2.152000 142 140 146
-0.903262 -1.308676 2.280000 135 138 141
-0.769757 -1.275385 2.222000 133 135 140
-0.691864 -1.338523 2.332000 133 135 140
-0.564999 -1.313268 2.288000 130 132 137
-0.470513 -1.369518 2.386000 127 131 136
-0.336197 -1.308676 2.280000 129 131 136
-0.233141 -1.369518 2.386000 130 131 139
-0.113160 -1.354020 2.359000 129 131 136
0.004028 -1.304084 2.272000 130 131 139
0.115755 -1.289735 2.247000 130 131 139
0.227527 -1.289735 2.247000 128 129 137
0.333108 -1.266201 2.206000 130 132 137
0.454282 -1.298918 2.263000 135 134 138
0.571108 -1.308676 2.280000 133 132 136
0.694729 -1.328191 2.314000 134 132 133
0.825582 -1.354020 2.359000 131 131 132
0.888164 -1.275385 2.222000 132 130 131
1.052177 -1.343689 2.341000 132 132 133
1.138173 -1.308676 2.280000 130 130 130
1.224139 -1.279977 2.230000 129 129 129
1.380565 -1.323599 2.306000 123 128 124
1.500459 -1.328191 2.314000 125 127 121
1.597411 -1.313268 2.288000 121 126 122
1.717953 -1.318434 2.297000 120 125 121
1.926335 -1.386163 2.415000 119 123 122
-1.964682 -1.442119 2.524000 106 114 102
-1.801970 -1.412980 2.473000 123 126 118
-1.713582 -1.442119 2.524000 115 120 116
-1.519452 -1.379841 2.415000 104 110 103
-1.255625 -1.238143 2.167000 148 147 144
-1.116581 -1.204432 2.108000 147 145 146
-1.022282 -1.217002 2.130000 144 144 145
-0.942143 -1.251284 2.190000 136 138 143
-0.854893 -1.283852 2.247000 135 138 141
-0.748412 -1.292994 2.263000 132 135 138
-0.647927 -1.317562 2.306000 132 134 139
-0.537151 -1.327275 2.323000 129 131 136
-0.428133 -1.347844 2.359000 129 131 136
-0.294849 -1.278710 2.238000 123 125 130
-0.193447 -1.347844 2.359000 128 130 135
-0.074653 -1.322133 2.314000 129 131 136
0.039717 -1.298136 2.272000 130 131 139
0.149371 -1.269568 2.222000 129 130 138
0.263759 -1.288423 2.255000 133 131 137
0.366426 -1.255855 2.198000 129 131 136
0.491778 -1.298136 2.272000 133 132 136
0.613844 -1.317562 2.306000 133 132 136
0.745295 -1.347844 2.359000 131 131 132
0.849473 -1.327275 2.323000 131 131 132
0.940100 -1.292994 2.263000 130 130 131
1.088950 -1.337560 2.341000 129 129 129
1.161115 -1.288423 2.255000 130 130 130
1.287401 -1.302707 2.280000 126 131 127
1.427233 -1.327275 2.323000 125 130 126
1.525518 -1.312420 2.297000 125 126 123
1.646201 -1.317562 2.306000 124 125 122
1.773889 -1.327275 2.323000 119 124 120
2.027713 -1.424407 2.493000 119 124 120
-1.957068 -1.459399 2.566000 120 122 111
-1.741736 -1.389443 2.443000 123 125 119
-1.640111 -1.406505 2.473000 113 118 114
-1.436120 -1.331431 2.341000 121 124 116
-1.183816 -1.194364 2.100000 149 148 145
-1.087066 -1.202895 2.115000 146 144 145
-0.995323 -1.219388 2.144000 139 142 145
-0.941730 -1.292188 2.272000 136 139 142
-0.798805 -1.245551 2.190000 133 136 139
-0.726410 -1.311525 2.306000 132 134 139
-0.611704 -1.311525 2.306000 130 132 137
-0.508420 -1.341669 2.359000 127 131 136
-0.376654 -1.292188 2.272000 129 131 136
-0.263639 -1.292188 2.272000 129 131 136
-0.152878 -1.311525 2.306000 128 130 135
-0.037609 -1.292188 2.272000 128 129 137
0.075107 -1.287069 2.263000 129 130 138
0.183611 -1.259200 2.214000 129 131 136
0.296926 -1.272850 2.238000 132 130 136
0.405331 -1.263750 2.222000 129 131 136
0.527467 -1.292188 2.272000 132 131 135
0.652322 -1.316075 2.314000 133 132 136
0.797606 -1.367831 2.405000 131 131 132
0.860029 -1.282519 2.255000 131 131 132
1.005395 -1.326312 2.332000 130 130 130
1.134379 -1.341669 2.359000 130 130 130
1.200782 -1.287069 2.263000 129 129 129
1.353394 -1.326312 2.332000 129 130 127
1.486407 -1.341669 2.359000 123 128 124
1.555481 -1.301288 2.288000 124 125 122
1.694827 -1.321194 2.323000 125 126 123
1.831421 -1.336550 2.350000 119 123 122
2.084284 -1.429824 2.514000 120 125 121
-1.907737 -1.440792 2.545000 128 127 119
-1.730752 -1.400031 2.473000 123 125 119
-1.601238 -1.394370 2.463000 112 112 112
-1.384463 -1.305488 2.306000 126 128 122
-1.152472 -1.184903 2.093000 148 146 146
-1.062886 -1.201321 2.122000 144 144 145
-0.974476 -1.222833 2.160000 140 139 143
-0.932461 -1.315112 2.323000 135 138 141
-0.772951 -1.244346 2.198000 133 136 139
-0.698640 -1.310017 2.314000 132 134 139
-0.583535 -1.310017 2.314000 129 131 136
-0.475719 -1.330397 2.350000 127 131 136
-0.336836 -1.248875 2.206000 127 131 136
-0.237399 -1.305488 2.306000 128 130 135
-0.120883 -1.286240 2.272000 128 130 135
-0.007837 -1.281144 2.263000 129 130 138
0.103203 -1.262462 2.230000 130 131 139
0.213361 -1.257933 2.222000 128 130 135
0.321557 -1.248875 2.206000 129 131 136
0.437545 -1.266991 2.238000 132 130 136
0.557208 -1.286240 2.272000 132 131 135
0.698542 -1.340588 2.368000 131 130 134
0.825985 -1.356439 2.396000 131 131 132
0.879685 -1.262462 2.230000 131 131 131
1.043918 -1.330397 2.350000 130 130 130
1.165258 -1.335493 2.359000 131 131 131
1.235299 -1.286240 2.272000 129 129 129
1.378580 -1.315112 2.323000 127 126 123
1.528864 -1.345683 2.377000 122 127 123
1.579888 -1.290769 2.280000 124 125 122
1.725236 -1.315112 2.323000 120 125 121
1.913690 -1.367196 2.415000 120 124 123
-1.936544 -1.387921 2.463000 104 109 94
-1.806663 -1.382286 2.453000 126 127 119
-1.712116 -1.404827 2.493000 119 124 120
-1.568996 -1.387921 2.463000 115 115 115
-1.329024 -1.275220 2.263000 138 137 134
-1.128837 -1.183368 2.100000 148 144 144
-1.035109 -1.195765 2.122000 144 143 147
-0.956277 -1.230139 2.183000 140 139 143
-0.891956 -1.294379 2.297000 136 139 142
-0.757722 -1.261132 2.238000 133 136 139
-0.670949 -1.309030 2.323000 132 135 138
-0.553245 -1.303959 2.314000 129 131 136
-0.436626 -1.299451 2.306000 129 131 136
-0.302515 -1.221123 2.167000 123 127 132
-0.206404 -1.294379 2.297000 127 129 134
-0.090781 -1.275220 2.263000 129 131 136
0.021786 -1.275220 2.263000 129 130 138
0.131919 -1.252116 2.222000 129 130 138
0.245175 -1.266204 2.247000 128 130 135
0.347892 -1.234084 2.190000 128 130 135
0.473933 -1.280291 2.272000 133 132 136
0.591082 -1.289308 2.288000 132 131 135
0.740939 -1.355238 2.405000 130 130 131
0.837669 -1.319173 2.341000 132 130 131
0.912137 -1.261132 2.238000 131 129 129
1.087027 -1.339460 2.377000 129 129 129
1.191574 -1.324245 2.350000 126 130 129
1.273948 -1.289308 2.288000 129 129 129
1.414447 -1.314102 2.332000 126 127 124
1.554073 -1.334388 2.368000 125 130 126
1.640092 -1.309030 2.323000 126 125 122
1.776050 -1.324245 2.350000 119 124 120
2.008133 -1.404827 2.493000 118 123 119
-1.927498 -1.398300 2.493000 108 113 100
-1.719573 -1.333237 2.377000 125 125 119
-1.659271 -1.381473 2.463000 118 119 116
-1.524277 -1.370255 2.443000 109 109 103
-1.253465 -1.224424 2.183000 149 150 147
-1.109214 -1.186283 2.115000 147 145 145
-1.017775 -1.202549 2.144000 144 144 145
-0.954899 -1.260321 2.247000 136 139 142
-0.843127 -1.260321 2.247000 134 136 141
-0.739493 -1.274343 2.272000 133 136 139
-0.650467 -1.323141 2.359000 132 135 138
-0.524988 -1.302949 2.323000 129 131 136
-0.394455 -1.255273 2.238000 128 130 135
-0.273263 -1.211523 2.160000 128 131 134
-0.175031 -1.278830 2.280000 128 130 135
-0.061158 -1.269295 2.263000 128 130 135
0.051227 -1.264808 2.255000 129 131 136
0.162165 -1.255273 2.238000 132 130 136
0.275566 -1.264808 2.255000 131 129 135
0.379311 -1.237324 2.206000 132 130 136
0.505448 -1.278830 2.280000 132 131 135
0.628089 -1.297901 2.314000 130 129 133
0.781734 -1.365207 2.434000 131 131 132
0.845687 -1.278830 2.280000 131 131 131
0.959100 -1.278830 2.280000 130 130 130
1.136017 -1.354551 2.415000 128 128 128
1.227018 -1.323141 2.359000 125 129 128
1.318716 -1.297901 2.314000 126 127 124
1.484629 -1.343894 2.396000 126 127 124
1.566997 -1.313045 2.341000 125 126 123
1.709333 -1.333237 2.377000 122 123 120
1.806812 -1.318093 2.350000 118 125 121
2.066143 -1.415688 2.524000 121 126 122
-1.925035 -1.409080 2.524000 117 119 108
-1.701098 -1.332038 2.386000 123 124 121
-1.626847 -1.369442 2.453000 113 117 116
-1.493172 -1.358835 2.434000 111 113 107
-1.204673 -1.193028 2.137000 149 148 145
-1.090664 -1.184654 2.122000 145 143 143
-1.002751 -1.205869 2.160000 140 139 143
-0.955823 -1.287376 2.306000 136 139 142
-0.813396 -1.244948 2.230000 134 137 140
-0.718220 -1.272861 2.280000 132 135 138
-0.632925 -1.332038 2.386000 130 132 137
-0.500661 -1.296867 2.323000 129 131 136
-0.363060 -1.222617 2.190000 129 131 136
-0.253312 -1.218709 2.183000 129 132 135
-0.148967 -1.254438 2.247000 130 128 134
-0.037741 -1.272861 2.280000 128 130 135
0.074012 -1.244948 2.230000 129 131 136
0.185602 -1.249414 2.238000 128 130 135
0.299181 -1.258904 2.255000 132 130 136
0.402412 -1.231549 2.206000 131 130 134
0.529324 -1.272861 2.280000 131 130 134
0.662470 -1.311940 2.350000 131 130 134
0.803907 -1.353252 2.424000 130 130 131
0.856978 -1.254438 2.247000 131 131 132
0.997635 -1.291842 2.314000 130 130 130
1.174772 -1.363860 2.443000 129 129 129
1.246946 -1.311940 2.350000 130 131 128
1.358618 -1.306916 2.341000 128 129 126
1.533664 -1.358835 2.434000 125 125 125
1.591512 -1.306916 2.341000 124 125 122
1.748087 -1.337621 2.396000 124 125 122
1.845449 -1.321989 2.368000 118 123 119
2.075164 -1.397356 2.503000 123 124 121
-1.882806 -1.390803 2.503000 130 127 117
-1.709830 -1.352463 2.434000 123 124 121
-1.601158 -1.363020 2.453000 115 115 115
-1.444769 -1.331348 2.396000 126 127 124
-1.173996 -1.179099 2.122000 151 150 147
-1.072470 -1.183544 2.130000 144 144 145
-0.986938 -1.208548 2.175000 140 139 143
-0.942179 -1.295786 2.332000 135 138 141
-0.792877 -1.243555 2.238000 133 135 140
-0.702262 -1.281339 2.306000 132 134 139
-0.607939 -1.325792 2.386000 129 131 136
-0.474489 -1.285784 2.314000 129 131 136
-0.334225 -1.195768 2.152000 128 130 135
-0.233724 -1.230219 2.214000 128 130 135
-0.125436 -1.248556 2.247000 130 128 134
-0.013865 -1.266892 2.280000 132 130 136
0.096666 -1.230219 2.214000 128 130 135
0.207544 -1.234664 2.222000 131 129 135
0.321651 -1.248556 2.247000 131 129 135
0.428600 -1.234664 2.222000 131 130 134
0.551260 -1.262447 2.272000 131 130 134
0.703160 -1.336349 2.405000 130 129 133
0.810133 -1.315790 2.368000 128 128 129
0.880509 -1.248556 2.247000 130 130 130
1.041740 -1.310789 2.359000 129 129 129
1.200355 -1.357464 2.443000 130 130 130
1.266686 -1.300787 2.341000 129 130 127
1.383133 -1.300787 2.341000 125 126 123
1.564919 -1.357464 2.443000 121 126 122
1.622241 -1.305788 2.350000 125 126 123
1.779839 -1.336349 2.405000 120 125 121
1.914476 -1.346906 2.424000 120 125 121
2.084585 -1.379690 2.483000 118 123 119
-1.825929 -1.356598 2.453000 126 127 114
-1.703911 -1.356598 2.453000 123 124 121
-1.588341 -1.362129 2.463000 109 113 112
-1.398575 -1.299636 2.350000 125 126 123
-1.157329 -1.173543 2.122000 147 146 143
-1.059210 -1.181839 2.137000 144 144 145
-0.980111 -1.215574 2.198000 140 139 143
-0.927429 -1.294658 2.341000 135 138 141
-0.775300 -1.237695 2.238000 132 135 138
-0.689194 -1.284704 2.323000 132 134 139
-0.586976 -1.314568 2.377000 128 130 135
-0.454737 -1.275302 2.306000 128 130 135
-0.315111 -1.181839 2.137000 128 130 135
-0.217898 -1.233271 2.230000 127 129 134
-0.108171 -1.247097 2.255000 127 129 134
0.004057 -1.265347 2.288000 128 130 135
0.114468 -1.228847 2.222000 132 130 136
0.224996 -1.228847 2.222000 127 129 134
0.335524 -1.228847 2.222000 129 127 133
0.454282 -1.251521 2.263000 131 130 134
0.569104 -1.256499 2.272000 131 130 134
0.730756 -1.346091 2.434000 129 128 132
0.812983 -1.284704 2.323000 129 129 130
0.901354 -1.247097 2.255000 128 128 128
1.076897 -1.325075 2.396000 130 128 128
1.215050 -1.346091 2.434000 129 129 129
1.280131 -1.289681 2.332000 126 127 124
1.406908 -1.299636 2.350000 125 126 123
1.590591 -1.356598 2.453000 124 125 122
1.672813 -1.325075 2.396000 123 124 121
1.791997 -1.325075 2.396000 120 125 121
1.956646 -1.356598 2.453000 119 123 122
-1.936544 -1.355680 2.463000 103 108 93
-1.778676 -1.329260 2.415000 122 123 110
-1.684645 -1.350176 2.453000 118 123 119
-1.562626 -1.350176 2.453000 111 115 114
-1.348991 -1.264311 2.297000 128 127 124
-1.140663 -1.167988 2.122000 148 147 144
-1.045841 -1.180097 2.144000 144 144 145
-0.976865 -1.227433 2.230000 140 139 143
-0.902053 -1.278622 2.323000 135 138 141
-0.755013 -1.227433 2.230000 133 136 139
-0.676147 -1.288529 2.341000 128 132 137
-0.559700 -1.288529 2.341000 128 130 135
-0.425454 -1.236790 2.247000 128 130 135
-0.297350 -1.172391 2.130000 125 127 132
-0.201102 -1.231836 2.238000 127 129 134
-0.091463 -1.254954 2.280000 126 128 133
0.021950 -1.254954 2.280000 129 131 136
0.132394 -1.227433 2.230000 132 130 136
0.243320 -1.227433 2.230000 128 130 135
0.349163 -1.209820 2.198000 131 129 135
0.482694 -1.273668 2.314000 131 130 134
0.591082 -1.259357 2.288000 130 129 133
0.749873 -1.339718 2.434000 129 128 132
0.821924 -1.264311 2.297000 130 130 130
0.925994 -1.250551 2.272000 128 128 128
1.113093 -1.339718 2.434000 130 128 128
1.234167 -1.339718 2.434000 128 128 128
1.293436 -1.278622 2.323000 128 129 126
1.441741 -1.308344 2.377000 126 127 124
1.597387 -1.339718 2.434000 125 126 123
1.724815 -1.344672 2.443000 123 124 121
1.817617 -1.323756 2.405000 120 125 121
1.992022 -1.361185 2.473000 120 124 123
-1.923648 -1.349232 2.463000 103 108 95
-1.772612 -1.327868 2.424000 124 126 115
-1.664985 -1.338276 2.443000 119 124 120
-1.543464 -1.338276 2.443000 113 117 116
-1.322413 -1.244602 2.272000 139 136 133
-1.133810 -1.166815 2.130000 147 146 143
-1.034615 -1.174484 2.144000 144 143 147
-0.976010 -1.235290 2.255000 135 138 141
-0.886442 -1.267610 2.314000 135 139 139
-0.738004 -1.212830 2.214000 132 135 138
-0.668995 -1.292261 2.359000 127 131 136
-0.541128 -1.267610 2.314000 129 132 135
-0.409086 -1.217212 2.222000 128 130 135
-0.285122 -1.162432 2.122000 122 125 128
-0.188707 -1.221595 2.230000 127 129 134
-0.079804 -1.253367 2.288000 127 129 134
0.033769 -1.244602 2.272000 128 130 135
0.144588 -1.225977 2.238000 131 129 135
0.255912 -1.225977 2.238000 131 129 135
0.358210 -1.195848 2.183000 130 128 134
0.500584 -1.282401 2.341000 130 129 133
0.607806 -1.263228 2.306000 130 129 133
0.756665 -1.322938 2.415000 130 129 133
0.827780 -1.248985 2.280000 130 128 128
0.941193 -1.248985 2.280000 129 129 129
1.125838 -1.333346 2.434000 128 128 128
1.246911 -1.333346 2.434000 128 128 128
1.305599 -1.272540 2.323000 128 129 126
1.471317 -1.317460 2.405000 125 126 123
1.603517 -1.327868 2.424000 124 125 122
1.758944 -1.354710 2.473000 123 124 121
1.837820 -1.322938 2.415000 120 124 123
2.013079 -1.360188 2.483000 121 125 124
-1.910752 -1.342784 2.463000 102 107 94
-1.767180 -1.326974 2.434000 125 126 118
-1.646107 -1.326974 2.434000 118 122 121
-1.530673 -1.331880 2.443000 113 117 116
-1.296096 -1.225025 2.247000 146 143 140
-1.122658 -1.161238 2.130000 147 146 143
-1.027207 -1.173232 2.152000 143 142 146
-0.967623 -1.233748 2.263000 136 139 142
-0.871303 -1.257190 2.306000 134 137 140
-0.726411 -1.207034 2.214000 132 135 138
-0.656643 -1.286085 2.359000 130 132 137
-0.527183 -1.257190 2.306000 128 131 134
-0.394590 -1.202672 2.206000 125 129 134
-0.275044 -1.161238 2.130000 128 127 131
-0.176396 -1.211395 2.222000 128 130 135
-0.068091 -1.252284 2.297000 128 130 135
0.045163 -1.225025 2.247000 128 130 135
0.155747 -1.215757 2.230000 128 130 135
0.267630 -1.220118 2.238000 130 128 134
0.366932 -1.181410 2.167000 129 128 132
0.514813 -1.281178 2.350000 130 129 133
0.626870 -1.271365 2.332000 129 127 133
0.760072 -1.300805 2.386000 130 129 133
0.836771 -1.238654 2.272000 131 129 129
0.964000 -1.257190 2.306000 128 128 128
1.133905 -1.321522 2.424000 129 129 129
1.254481 -1.321522 2.424000 128 128 128
1.327974 -1.276272 2.341000 125 126 123
1.501803 -1.326974 2.434000 125 125 125
1.616209 -1.321522 2.424000 124 125 122
1.801270 -1.370588 2.514000 121 126 122
1.865023 -1.326974 2.434000 118 123 119
2.034240 -1.359139 2.493000 120 125 121
-1.890150 -1.330910 2.453000 103 108 95
-1.768131 -1.330910 2.453000 126 127 119
-1.626652 -1.315176 2.424000 116 120 119
-1.512289 -1.320601 2.434000 111 112 109
-1.274614 -1.209918 2.230000 150 147 144
-1.115158 -1.159460 2.137000 147 145 145
-1.019716 -1.171939 2.160000 143 142 146
-0.955774 -1.227823 2.263000 136 140 140
-0.849540 -1.237047 2.280000 133 136 139
-0.712236 -1.196897 2.206000 130 133 136
-0.639375 -1.270143 2.341000 130 132 137
-0.511088 -1.241387 2.288000 127 131 131
-0.380261 -1.188216 2.190000 125 129 134
-0.265626 -1.163258 2.144000 127 130 133
-0.164761 -1.205578 2.222000 127 129 134
-0.056479 -1.255494 2.314000 127 129 134
0.056498 -1.209918 2.230000 127 129 134
0.166823 -1.205578 2.222000 130 128 134
0.279348 -1.214259 2.238000 130 129 133
0.379675 -1.180077 2.175000 130 129 133
0.527118 -1.275026 2.350000 129 128 132
0.644013 -1.275026 2.350000 130 128 134
0.766737 -1.284792 2.368000 129 128 132
0.851656 -1.237047 2.280000 130 128 128
0.994699 -1.275026 2.350000 129 129 129
1.142340 -1.310293 2.415000 126 126 126
1.267173 -1.315176 2.424000 131 129 129
1.355689 -1.284792 2.368000 128 129 126
1.520148 -1.325485 2.443000 126 126 126
1.628901 -1.315176 2.424000 124 125 122
1.836807 -1.380826 2.545000 121 125 124
1.892426 -1.330910 2.453000 122 123 120
2.064539 -1.364007 2.514000 119 124 120
-1.848224 -1.303970 2.415000 107 110 97
-1.762443 -1.329888 2.463000 126 126 120
-1.601309 -1.298571 2.405000 116 121 117
-1.481678 -1.298571 2.405000 109 108 105
-1.253876 -1.195441 2.214000 151 149 143
-1.107584 -1.157645 2.144000 146 144 145
-1.011674 -1.170063 2.167000 143 143 144
-0.943924 -1.221898 2.263000 136 140 140
-0.825479 -1.213259 2.247000 133 136 139
-0.698144 -1.186802 2.198000 130 133 136
-0.624706 -1.259155 2.332000 129 131 136
-0.497363 -1.231078 2.280000 127 130 133
-0.367615 -1.178703 2.183000 128 130 135
-0.257129 -1.170063 2.167000 127 130 133
-0.153127 -1.199761 2.222000 127 129 134
-0.044362 -1.249436 2.314000 127 129 134
0.067929 -1.199761 2.222000 128 130 135
0.177815 -1.195441 2.214000 130 128 134
0.290026 -1.204080 2.230000 129 128 132
0.393760 -1.182482 2.190000 128 127 131
0.539423 -1.268874 2.350000 130 129 133
0.661345 -1.278593 2.368000 129 128 132
0.776174 -1.273733 2.359000 129 129 130
0.866624 -1.235397 2.288000 130 128 128
1.022430 -1.288312 2.386000 128 128 128
1.150202 -1.298571 2.405000 126 126 126
1.275113 -1.303970 2.415000 130 128 128
1.384265 -1.293711 2.396000 123 128 124
1.539214 -1.324488 2.453000 125 125 126
1.641593 -1.308830 2.424000 121 126 122
1.865399 -1.385502 2.566000 120 124 123
1.960416 -1.362824 2.524000 120 124 123
2.111587 -1.379563 2.555000 119 124 120
-1.821137 -1.287438 2.396000 107 110 97
-1.742443 -1.318066 2.453000 125 126 123
-1.582771 -1.287438 2.396000 118 119 116
-1.446484 -1.272393 2.368000 105 104 101
-1.233306 -1.181047 2.198000 153 151 145
-1.096358 -1.152032 2.144000 146 144 145
-1.004020 -1.168689 2.175000 142 141 145
-0.932075 -1.215974 2.263000 139 139 140
-0.801763 -1.189645 2.214000 133 136 139
-0.686635 -1.181047 2.198000 132 135 138
-0.605667 -1.239079 2.306000 129 131 136
-0.483721 -1.220810 2.272000 127 130 133
-0.354880 -1.168689 2.175000 127 129 134
-0.248391 -1.176749 2.190000 130 129 133
-0.141492 -1.193943 2.222000 127 129 134
-0.032135 -1.239079 2.306000 126 128 133
0.079278 -1.189645 2.214000 127 129 134
0.189408 -1.189645 2.214000 131 129 135
0.300620 -1.193943 2.222000 128 127 131
0.408188 -1.185346 2.206000 129 128 132
0.553841 -1.267557 2.359000 129 128 132
0.673744 -1.272393 2.368000 129 128 132
0.785518 -1.262721 2.350000 128 128 129
0.878605 -1.229407 2.288000 130 128 128
1.047502 -1.297648 2.415000 128 128 128
1.162795 -1.292274 2.405000 126 126 126
1.287758 -1.297648 2.415000 128 128 128
1.413133 -1.302484 2.424000 122 126 125
1.552058 -1.318066 2.453000 122 126 126
1.654285 -1.302484 2.424000 121 126 122
1.919106 -1.408337 2.621000 121 125 124
2.058083 -1.414248 2.632000 120 124 123
2.170708 -1.402427 2.610000 118 123 119
-1.787456 -1.266194 2.368000 111 114 99
-1.709151 -1.296137 2.424000 123 124 121
-1.570225 -1.281166 2.396000 113 117 116
-1.406833 -1.242132 2.323000 110 111 108
-1.217350 -1.171015 2.190000 149 148 145
-1.089181 -1.150696 2.152000 144 144 144
-0.996283 -1.167272 2.183000 140 140 141
-0.916973 -1.205771 2.255000 139 138 142
-0.779107 -1.167272 2.183000 134 137 140
-0.675126 -1.175293 2.198000 132 135 138
-0.588959 -1.223417 2.288000 129 131 136
-0.469956 -1.210049 2.263000 127 130 133
-0.344754 -1.167272 2.183000 130 128 134
-0.236924 -1.171015 2.190000 128 131 134
-0.130325 -1.192404 2.230000 127 129 134
-0.019834 -1.219139 2.280000 127 129 134
0.091199 -1.188126 2.222000 128 130 135
0.201727 -1.188126 2.222000 130 128 134
0.310006 -1.179571 2.206000 129 128 132
0.425827 -1.196681 2.238000 129 128 132
0.568353 -1.266194 2.368000 128 127 131
0.686143 -1.266194 2.368000 131 128 132
0.797823 -1.256569 2.350000 131 129 130
0.894088 -1.228229 2.297000 128 126 126
1.064098 -1.296137 2.424000 129 129 130
1.175388 -1.285978 2.405000 128 126 126
1.300403 -1.291325 2.415000 126 126 126
1.442884 -1.311644 2.453000 123 127 126
1.571282 -1.316991 2.463000 123 127 127
1.680044 -1.306297 2.443000 122 127 123
1.992562 -1.444787 2.702000 121 125 124
2.164751 -1.470453 2.750000 119 123 122
2.251328 -1.438370 2.690000 119 124 120
-1.748689 -1.245628 2.341000 118 123 108
-1.670590 -1.274893 2.396000 124 125 122
-1.539104 -1.264783 2.377000 112 116 115
-1.367666 -1.217427 2.288000 122 122 122
-1.191930 -1.157300 2.175000 149 148 145
-1.072279 -1.145062 2.152000 143 143 144
-0.982277 -1.165282 2.190000 139 139 140
-0.902452 -1.204124 2.263000 137 136 140
-0.751141 -1.145062 2.152000 133 136 139
-0.660257 -1.173795 2.206000 129 132 135
-0.564750 -1.204124 2.263000 132 130 136
-0.450584 -1.199868 2.255000 126 129 132
-0.329860 -1.169539 2.198000 130 129 133
-0.220526 -1.169539 2.198000 127 130 133
-0.112810 -1.186565 2.230000 126 128 133
-0.001899 -1.195611 2.247000 128 126 132
0.108650 -1.182309 2.222000 127 129 134
0.220757 -1.190822 2.238000 128 126 132
0.323919 -1.161557 2.183000 128 127 131
0.455094 -1.222216 2.297000 128 127 131
0.591413 -1.269572 2.386000 129 128 132
0.699385 -1.250417 2.350000 130 128 129
0.813154 -1.245628 2.341000 130 128 129
0.915703 -1.227004 2.306000 130 128 128
1.079114 -1.285003 2.415000 130 128 128
1.203712 -1.289791 2.424000 130 128 128
1.324288 -1.289791 2.424000 126 126 126
1.485993 -1.326506 2.493000 123 127 126
1.590627 -1.310543 2.463000 124 124 124
1.720098 -1.315864 2.473000 122 126 125
2.068190 -1.476556 2.775000 120 124 123
2.268239 -1.518059 2.853000 120 124 123
-1.942993 -1.304095 2.463000 107 107 96
-1.736955 -1.244264 2.350000 122 127 114
-1.638673 -1.258560 2.377000 122 123 120
-1.503165 -1.244264 2.350000 112 116 116
-1.340257 -1.202965 2.272000 124 124 124
-1.174847 -1.151606 2.175000 150 146 146
-1.059300 -1.143664 2.160000 143 143 144
-0.968602 -1.163784 2.198000 139 139 140
-0.881551 -1.193964 2.255000 137 136 140
-0.731509 -1.135192 2.144000 132 135 138
-0.642931 -1.168020 2.206000 129 132 135
-0.545042 -1.193964 2.255000 130 128 134
-0.429609 -1.184963 2.238000 126 129 132
-0.313735 -1.168020 2.206000 129 128 132
-0.204742 -1.172256 2.214000 126 129 132
-0.095638 -1.184963 2.238000 126 128 133
0.015630 -1.180727 2.230000 129 127 133
0.125648 -1.172256 2.214000 126 128 133
0.240144 -1.193964 2.255000 129 127 133
0.338565 -1.147370 2.167000 128 127 131
0.482198 -1.239499 2.341000 126 125 129
0.612710 -1.268620 2.396000 129 128 132
0.717842 -1.244264 2.350000 129 129 130
0.831540 -1.239499 2.341000 128 126 127
0.933814 -1.220967 2.306000 128 128 128
