-0.630142 -1.263750 2.222000 109 109 109
-0.579867 -1.268300 2.230000 116 113 110
-0.539147 -1.296738 2.280000 110 110 111
-0.507993 -1.357025 2.386000 107 103 104
-0.487938 -1.465655 2.577000 139 139 133
-0.464353 -1.593054 2.801000 126 123 120
-0.398355 -1.593054 2.801000 125 124 121
-0.326305 -1.564048 2.750000 124 122 122
-0.262745 -1.571441 2.763000 125 123 123
-0.194138 -1.543573 2.714000 123 121 121
-0.131341 -1.557223 2.738000 125 123 123
-0.067730 -1.578266 2.775000 125 123 124
-0.002345 -1.578266 2.775000 134 130 136
0.062472 -1.564048 2.750000 133 130 139
0.122872 -1.510017 2.655000 133 128 137
0.181519 -1.478167 2.599000 131 128 137
0.238647 -1.453142 2.555000 127 128 136
0.282474 -1.373518 2.415000 130 127 136
0.328977 -1.331431 2.341000 126 123 132
0.397756 -1.378637 2.424000 128 125 134
0.434229 -1.316075 2.314000 130 126 132
0.472700 -1.272850 2.238000 125 123 129
0.531302 -1.287069 2.263000 126 124 130
0.558014 -1.228488 2.160000 126 124 130
0.596223 -1.202895 2.115000 125 124 128
-1.915838 -1.388708 2.453000 107 108 93
-1.585680 -1.193395 2.108000 108 107 90
-1.573901 -1.222833 2.160000 107 105 93
-1.801519 -1.446453 2.555000 106 107 94
-1.817649 -1.509859 2.667000 107 108 93
-1.817974 -1.564208 2.763000 108 106 94
-1.737011 -1.550055 2.738000 106 107 94
-1.665167 -1.543261 2.726000 106 107 92
-1.593889 -1.536468 2.714000 106 106 95
-1.543470 -1.550055 2.738000 108 108 97
-1.485439 -1.556848 2.750000 105 107 96
-1.365883 -1.496839 2.644000 106 107 94
-1.281398 -1.471363 2.599000 107 108 95
-1.194808 -1.440792 2.545000 106 109 96
-1.129937 -1.434565 2.534000 105 106 93
-0.996319 -1.335493 2.359000 105 105 94
-0.902452 -1.281144 2.263000 100 102 91
-0.819113 -1.235854 2.183000 102 102 91
-0.772951 -1.244346 2.198000 126 125 122
-0.734285 -1.266991 2.238000 119 117 117
-0.676680 -1.257933 2.222000 112 112 113
-0.626573 -1.262462 2.230000 109 109 109
-0.578405 -1.272086 2.247000 112 112 112
-0.531307 -1.286240 2.272000 110 110 111
-0.507844 -1.367196 2.415000 107 105 106
-0.483245 -1.465136 2.588000 139 136 133
-0.458977 -1.592514 2.813000 123 122 119
-0.387392 -1.571001 2.775000 125 124 121
-0.317713 -1.550055 2.738000 125 123 123
-0.254309 -1.556848 2.750000 125 123 123
-0.187032 -1.536468 2.714000 124 122 122
-0.124717 -1.556848 2.750000 126 124 124
-0.060749 -1.578361 2.788000 129 125 126
0.004920 -1.571001 2.775000 135 131 137
0.069368 -1.550055 2.738000 133 129 140
0.129285 -1.496839 2.644000 131 128 137
0.186729 -1.458908 2.577000 131 128 137
0.240343 -1.417015 2.503000 130 127 136
0.284252 -1.345683 2.377000 130 127 136
0.332530 -1.315112 2.323000 128 125 134
0.400935 -1.361534 2.405000 128 123 132
0.435341 -1.295298 2.288000 128 124 130
0.478559 -1.266991 2.238000 126 124 130
0.535327 -1.276615 2.255000 126 125 129
0.557667 -1.209812 2.137000 124 122 128
0.601760 -1.197358 2.115000 127 124 128
-1.950881 -1.393557 2.473000 107 105 91
-1.647415 -1.217178 2.160000 106 107 92
-1.558086 -1.187876 2.108000 108 106 92
-1.707344 -1.344531 2.386000 105 106 93
-1.829662 -1.489917 2.644000 103 106 93
-1.822176 -1.536124 2.726000 107 108 95
-1.781805 -1.556974 2.763000 106 107 94
-1.686258 -1.529362 2.714000 107 108 95
-1.629483 -1.536124 2.726000 108 108 97
-1.558362 -1.529362 2.714000 107 107 96
-1.528003 -1.563736 2.775000 107 107 96
-1.417816 -1.515838 2.690000 107 108 95
-1.325231 -1.483154 2.632000 108 109 96
-1.236818 -1.452161 2.577000 108 109 96
-1.166057 -1.439764 2.555000 104 107 94
-1.070364 -1.393557 2.473000 105 105 94
-0.950706 -1.309030 2.323000 100 103 90
-0.853930 -1.247608 2.214000 100 102 91
-0.793072 -1.234084 2.190000 112 111 103
-0.752305 -1.252116 2.222000 122 119 116
-0.704990 -1.261132 2.238000 114 114 114
-0.652257 -1.261132 2.238000 111 111 111
-0.601936 -1.266204 2.247000 132 131 128
-0.557054 -1.284800 2.280000 112 112 113
-0.512825 -1.309030 2.323000 129 125 126
-0.497726 -1.422296 2.524000 108 108 109
-0.473329 -1.536124 2.726000 124 123 120
-0.420354 -1.578387 2.801000 124 123 120
-0.344868 -1.536124 2.726000 124 122 122
-0.280637 -1.536124 2.726000 123 121 121
-0.216406 -1.536124 2.726000 125 123 124
-0.152175 -1.536124 2.726000 125 123 123
-0.090364 -1.578387 2.801000 127 125 126
-0.024253 -1.571062 2.788000 134 131 135
0.040874 -1.549649 2.750000 135 132 141
0.102903 -1.509076 2.678000 133 129 140
0.161106 -1.464559 2.599000 132 129 138
0.214132 -1.410462 2.503000 131 128 137
0.261433 -1.350166 2.396000 132 127 136
0.303559 -1.289308 2.288000 128 125 134
0.368563 -1.329317 2.359000 126 123 132
0.419291 -1.314102 2.332000 126 124 130
0.453496 -1.256624 2.230000 128 124 130
0.509897 -1.266204 2.247000 127 124 128
0.552572 -1.243100 2.206000 126 124 130
0.573583 -1.179423 2.093000 125 123 129
0.638077 -1.208162 2.144000 124 124 125
-1.883865 -1.343894 2.396000 107 105 91
-1.629873 -1.198623 2.137000 105 106 91
-1.574347 -1.194697 2.130000 108 106 92
-1.720940 -1.348942 2.405000 106 107 92
-1.837274 -1.489164 2.655000 105 106 93
-1.822176 -1.528987 2.726000 106 107 94
-1.789544 -1.556471 2.775000 107 107 96
-1.686258 -1.522257 2.714000 105 107 96
-1.629483 -1.528987 2.726000 110 108 96
-1.551472 -1.515526 2.702000 107 107 96
-1.528003 -1.556471 2.775000 107 107 96
-1.417816 -1.508795 2.690000 107 108 95
-1.325231 -1.476264 2.632000 107 108 95
-1.242097 -1.451585 2.588000 107 108 95
-1.176098 -1.445415 2.577000 105 108 95
-1.088110 -1.410079 2.514000 105 105 94
-0.965439 -1.323141 2.359000 100 103 90
-0.860101 -1.250786 2.230000 100 102 91
-0.793072 -1.228350 2.190000 111 111 100
-0.755013 -1.250786 2.230000 122 119 116
-0.704990 -1.255273 2.238000 116 114 114
-0.652257 -1.255273 2.238000 111 111 111
-0.604079 -1.264808 2.255000 128 128 128
-0.557054 -1.278830 2.280000 112 112 113
-0.514812 -1.307997 2.332000 125 123 124
-0.495754 -1.410079 2.514000 107 107 108
-0.473329 -1.528987 2.726000 124 123 120
-0.418403 -1.563763 2.788000 124 123 120
-0.341832 -1.515526 2.702000 124 122 122
-0.278166 -1.515526 2.702000 123 121 121
-0.216406 -1.528987 2.726000 125 123 124
-0.152175 -1.528987 2.726000 125 123 124
-0.090364 -1.571054 2.801000 127 125 126
-0.024253 -1.563763 2.788000 133 132 136
0.040874 -1.542449 2.750000 136 132 143
0.102903 -1.502065 2.678000 135 131 142
0.161106 -1.457754 2.599000 132 129 138
0.214132 -1.403909 2.503000 131 128 137
0.259360 -1.333237 2.377000 132 127 136
0.300242 -1.269295 2.263000 130 125 134
0.364344 -1.307997 2.332000 128 125 134
0.416055 -1.297901 2.314000 127 123 129
0.451869 -1.246299 2.222000 128 124 130
0.507855 -1.255273 2.238000 127 124 128
0.550568 -1.232837 2.198000 125 124 128
0.573583 -1.173944 2.093000 125 123 129
0.638077 -1.202549 2.144000 125 123 124
-1.786970 -1.277327 2.288000 109 107 93
-1.596717 -1.176838 2.108000 106 104 90
-1.596219 -1.214243 2.175000 104 105 90
-1.777960 -1.397356 2.503000 106 107 94
-1.831613 -1.488913 2.667000 106 107 94
-1.823819 -1.535249 2.750000 106 106 95
-1.767338 -1.542507 2.763000 106 106 95
-1.679440 -1.521851 2.726000 102 104 93
-1.615210 -1.521851 2.726000 108 108 97
-1.544152 -1.515152 2.714000 107 107 96
-1.506928 -1.542507 2.763000 107 107 96
-1.397469 -1.495054 2.678000 108 109 96
-1.317428 -1.476072 2.644000 108 109 94
-1.233768 -1.450950 2.599000 108 106 92
-1.172530 -1.450950 2.599000 107 108 95
-1.074946 -1.403497 2.514000 104 104 93
-0.949451 -1.311940 2.350000 102 103 90
-0.842337 -1.236015 2.214000 100 101 93
-0.784460 -1.227083 2.198000 118 116 110
-0.746004 -1.249414 2.238000 122 119 116
-0.693271 -1.249414 2.238000 115 115 115
-0.643115 -1.254438 2.247000 109 109 110
-0.596737 -1.268395 2.272000 132 130 130
-0.549180 -1.282352 2.297000 112 112 113
-0.514239 -1.332038 2.386000 126 124 124
-0.486430 -1.414662 2.534000 113 111 112
-0.461077 -1.528550 2.738000 124 122 122
-0.396563 -1.528550 2.738000 124 123 120
-0.321984 -1.482213 2.655000 123 121 121
-0.262846 -1.501753 2.690000 124 122 122
-0.203023 -1.528550 2.738000 125 123 124
-0.138509 -1.528550 2.738000 125 123 124
-0.075698 -1.563721 2.801000 133 131 132
-0.009610 -1.549206 2.775000 135 132 141
0.054790 -1.521851 2.726000 135 132 141
0.116445 -1.488913 2.667000 132 128 139
0.174715 -1.450950 2.599000 131 128 137
0.224514 -1.380608 2.473000 130 127 136
0.266660 -1.301891 2.332000 132 127 136
0.306437 -1.240481 2.222000 128 123 132
0.376555 -1.301891 2.332000 128 125 134
0.420400 -1.268395 2.272000 128 126 132
0.461835 -1.236015 2.214000 126 124 130
0.519573 -1.249414 2.238000 128 125 129
0.554150 -1.209776 2.167000 124 123 127
0.586497 -1.172372 2.100000 124 123 127
0.656268 -1.209776 2.167000 125 123 124
-1.698963 -1.216883 2.190000 106 104 90
-1.585680 -1.171320 2.108000 107 105 91
-1.637294 -1.248556 2.247000 105 106 91
-1.817031 -1.431921 2.577000 105 106 93
-1.833324 -1.494710 2.690000 107 108 95
-1.817974 -1.535273 2.763000 105 105 94
-1.744624 -1.528050 2.750000 103 105 94
-1.672497 -1.521382 2.738000 106 107 94
-1.600936 -1.514714 2.726000 106 106 95
-1.536705 -1.514714 2.726000 108 108 97
-1.478957 -1.521382 2.738000 108 108 97
-1.377765 -1.481930 2.667000 108 109 96
-1.309008 -1.475263 2.655000 107 108 95
-1.230488 -1.456370 2.621000 109 107 93
-1.173636 -1.462483 2.632000 105 106 93
-1.052914 -1.385246 2.493000 102 102 91
-0.933557 -1.300787 2.341000 102 101 93
-0.830745 -1.230219 2.214000 100 101 93
-0.775765 -1.225774 2.206000 127 126 118
-0.734285 -1.243555 2.238000 119 118 115
-0.681553 -1.243555 2.238000 114 114 115
-0.635845 -1.257446 2.263000 110 110 111
-0.588959 -1.271337 2.288000 130 128 128
-0.543233 -1.290785 2.323000 111 110 114
-0.515835 -1.363020 2.453000 129 126 123
-0.479137 -1.425809 2.566000 121 119 120
-0.448698 -1.528050 2.750000 124 122 123
-0.375526 -1.494710 2.690000 124 122 122
-0.306806 -1.469150 2.644000 124 122 122
-0.248761 -1.494710 2.690000 125 123 123
-0.189513 -1.528050 2.750000 124 122 123
-0.124173 -1.521382 2.738000 127 125 126
-0.060749 -1.549165 2.788000 135 132 136
0.004899 -1.535273 2.763000 135 132 141
0.068760 -1.508046 2.714000 135 132 141
0.130410 -1.481930 2.667000 131 127 138
0.186729 -1.431921 2.577000 132 129 138
0.234582 -1.357464 2.443000 131 126 135
0.274685 -1.276338 2.297000 130 125 134
0.315782 -1.225774 2.206000 130 125 134
0.384431 -1.281339 2.306000 126 124 130
0.424305 -1.239109 2.230000 125 123 129
0.473427 -1.230219 2.214000 126 125 129
0.527493 -1.234664 2.222000 126 123 127
0.557667 -1.187434 2.137000 122 121 125
0.599769 -1.171320 2.108000 124 123 127
0.667615 -1.204103 2.167000 124 124 125
-1.641263 -1.177968 2.130000 107 105 91
-1.591076 -1.177968 2.130000 104 105 90
-1.693530 -1.294658 2.341000 106 104 90
-1.834331 -1.449508 2.621000 106 107 94
-1.835470 -1.500941 2.714000 107 108 95
-1.803506 -1.528040 2.763000 104 107 94
-1.715124 -1.507577 2.726000 104 106 95
-1.658161 -1.514214 2.738000 105 106 93
-1.586663 -1.507577 2.726000 105 105 94
-1.529134 -1.514214 2.738000 106 106 95
-1.451782 -1.500941 2.714000 108 108 97
-1.369425 -1.481032 2.678000 108 109 96
-1.300959 -1.474948 2.667000 106 107 92
-1.232548 -1.468312 2.655000 108 106 92
-1.165143 -1.462228 2.644000 104 105 92
-1.031518 -1.367659 2.473000 102 102 91
-0.917758 -1.289681 2.332000 104 103 95
-0.819152 -1.224423 2.214000 99 101 90
-0.766985 -1.224423 2.214000 136 133 123
-0.722567 -1.237695 2.238000 117 118 115
-0.674923 -1.247097 2.255000 115 115 116
-0.628683 -1.260923 2.280000 109 109 109
-0.581518 -1.275302 2.306000 117 116 113
-0.535185 -1.294658 2.341000 110 110 111
-0.509143 -1.373189 2.483000 113 111 111
-0.469694 -1.431258 2.588000 132 130 131
-0.434299 -1.520850 2.750000 123 121 121
-0.356738 -1.468312 2.655000 124 122 122
-0.291632 -1.455592 2.632000 125 123 123
-0.236770 -1.500941 2.714000 125 123 123
-0.175114 -1.520850 2.750000 124 122 123
-0.109836 -1.514214 2.738000 131 129 130
-0.045737 -1.528040 2.763000 135 133 139
0.019107 -1.507577 2.726000 135 132 141
0.082971 -1.500941 2.714000 132 128 139
0.145619 -1.487668 2.690000 132 128 139
0.198513 -1.413008 2.555000 132 129 138
0.242615 -1.325075 2.396000 132 127 136
0.282469 -1.251521 2.263000 131 126 135
0.327332 -1.219998 2.206000 130 125 134
0.390659 -1.256499 2.272000 126 124 130
0.432853 -1.224423 2.214000 125 123 129
0.485020 -1.224423 2.214000 128 125 129
0.535246 -1.219998 2.206000 127 124 128
0.563001 -1.169672 2.115000 124 123 127
0.617181 -1.177968 2.130000 126 123 127
-1.746563 -1.218626 2.214000 105 106 91
-1.613274 -1.160282 2.108000 105 106 91
-1.619236 -1.201563 2.183000 104 105 90
-1.748064 -1.339718 2.434000 105 106 93
-1.828249 -1.448701 2.632000 105 106 93
-1.837365 -1.507046 2.738000 104 107 94
-1.789039 -1.520806 2.763000 105 108 95
-1.700851 -1.500440 2.726000 104 107 94
-1.643824 -1.507046 2.738000 107 108 95
-1.572389 -1.500440 2.726000 105 107 96
-1.514797 -1.507046 2.738000 107 108 95
-1.431215 -1.487230 2.702000 108 108 97
-1.355403 -1.474020 2.678000 109 110 95
-1.292303 -1.474020 2.678000 108 106 92
-1.224154 -1.467966 2.667000 108 106 94
-1.146073 -1.448701 2.632000 102 103 90
-1.014450 -1.355680 2.463000 104 104 93
-0.895451 -1.269265 2.306000 104 103 95
-0.807559 -1.218626 2.214000 102 104 93
-0.758122 -1.223030 2.222000 134 130 123
-0.713707 -1.236790 2.247000 116 117 114
-0.668115 -1.250551 2.272000 112 112 113
-0.618909 -1.259357 2.288000 109 109 109
-0.573642 -1.278622 2.323000 111 111 111
-0.530969 -1.308344 2.377000 109 109 110
-0.498140 -1.372193 2.493000 109 107 107
-0.461959 -1.442647 2.621000 137 135 136
-0.416235 -1.500440 2.726000 124 123 120
-0.338446 -1.442647 2.621000 124 122 122
-0.277851 -1.448701 2.632000 124 122 122
-0.222559 -1.493836 2.714000 124 122 122
-0.160013 -1.507046 2.738000 125 123 123
-0.094663 -1.493836 2.714000 137 135 136
-0.030986 -1.507046 2.738000 135 133 139
0.033233 -1.493836 2.714000 136 133 142
0.097181 -1.493836 2.714000 135 131 142
0.158992 -1.474020 2.678000 133 128 137
0.209320 -1.389256 2.524000 131 128 137
0.250261 -1.293483 2.350000 131 128 137
0.288986 -1.223030 2.222000 129 126 135
0.338883 -1.214223 2.206000 129 126 135
0.393696 -1.223030 2.222000 126 124 130
0.439628 -1.205416 2.190000 125 124 128
0.496613 -1.218626 2.214000 125 124 128
0.541096 -1.201563 2.183000 125 122 126
0.572175 -1.160282 2.108000 126 123 127
0.634824 -1.184500 2.152000 125 123 124
-1.692654 -1.183249 2.160000 105 106 91
-1.602236 -1.154763 2.108000 104 105 92
-1.666726 -1.239672 2.263000 105 106 91
-1.792355 -1.377170 2.514000 106 107 94
-1.830323 -1.454410 2.655000 105 106 91
-1.831019 -1.506451 2.750000 104 107 94
-1.766222 -1.506451 2.750000 104 107 94
-1.686577 -1.493304 2.726000 104 107 94
-1.636630 -1.506451 2.750000 107 108 95
-1.564975 -1.499877 2.738000 105 107 96
-1.500461 -1.499877 2.738000 109 110 97
-1.410774 -1.473583 2.690000 107 108 95
-1.347391 -1.473583 2.690000 108 109 96
-1.284009 -1.473583 2.690000 109 107 93
-1.220626 -1.473583 2.690000 107 105 93
-1.127560 -1.435785 2.621000 102 102 91
-0.993421 -1.338276 2.443000 104 103 95
-0.876482 -1.253367 2.288000 105 104 96
-0.795967 -1.212830 2.214000 104 106 95
-0.749175 -1.221595 2.230000 119 119 113
-0.706940 -1.239672 2.263000 114 119 115
-0.660840 -1.253367 2.288000 112 112 113
-0.611704 -1.263228 2.306000 111 111 111
-0.565829 -1.282401 2.341000 114 114 114
-0.522667 -1.312530 2.396000 110 110 110
-0.485086 -1.365666 2.493000 109 107 108
-0.452169 -1.448384 2.644000 135 131 132
-0.396653 -1.473583 2.690000 123 122 119
-0.324722 -1.435785 2.621000 124 122 122
-0.265273 -1.448384 2.644000 124 122 122
-0.210191 -1.499877 2.738000 126 122 122
-0.145039 -1.493304 2.726000 127 125 125
-0.079741 -1.473583 2.690000 139 136 140
-0.016504 -1.486730 2.714000 135 133 139
0.047234 -1.480157 2.702000 136 133 142
0.112377 -1.499877 2.738000 133 129 140
0.172303 -1.460983 2.667000 134 129 138
0.218921 -1.360188 2.483000 130 127 136
0.259549 -1.272540 2.323000 129 126 135
0.298455 -1.208448 2.206000 130 125 134
0.351705 -1.212830 2.214000 130 125 134
0.398217 -1.195848 2.183000 128 126 132
0.451095 -1.199683 2.190000 125 124 128
0.508205 -1.212830 2.214000 127 124 128
0.550501 -1.191466 2.175000 126 123 127
0.585149 -1.158598 2.115000 126 123 127
-1.727186 -1.185772 2.175000 104 105 90
-1.618147 -1.144883 2.100000 105 106 91
-1.630666 -1.190133 2.183000 105 106 91
-1.753574 -1.321522 2.424000 106 107 94
-1.826633 -1.422926 2.610000 105 106 93
-1.843586 -1.486167 2.726000 104 107 94
-1.803506 -1.506339 2.763000 103 106 93
-1.715124 -1.486167 2.726000 104 107 94
-1.673301 -1.506339 2.763000 105 106 93
-1.608199 -1.506339 2.763000 105 107 96
-1.522432 -1.486167 2.726000 105 107 96
-1.451782 -1.479625 2.714000 108 109 96
-1.375561 -1.466540 2.690000 106 109 94
-1.318032 -1.473083 2.702000 107 108 93
-1.259938 -1.479625 2.714000 106 107 94
-1.180126 -1.459998 2.678000 102 103 90
-1.048620 -1.370588 2.514000 104 104 93
-0.931926 -1.290992 2.368000 104 104 93
-0.828032 -1.220118 2.238000 100 101 93
-0.769757 -1.211395 2.222000 127 123 111
-0.725473 -1.225025 2.247000 115 121 114
-0.687493 -1.252284 2.297000 115 115 115
-0.633371 -1.252284 2.297000 110 110 111
-0.588074 -1.271365 2.332000 134 131 128
-0.539300 -1.286085 2.359000 111 111 112
-0.500941 -1.331880 2.443000 125 124 121
-0.461890 -1.387489 2.545000 109 113 113
-0.422928 -1.459998 2.678000 125 122 119
-0.355260 -1.441462 2.644000 124 122 122
-0.290413 -1.428923 2.621000 125 123 123
-0.235723 -1.473083 2.702000 125 123 123
-0.174350 -1.492709 2.738000 125 123 123
-0.107429 -1.459998 2.678000 135 132 136
-0.044528 -1.466540 2.690000 137 133 139
0.018854 -1.466540 2.690000 136 133 142
0.083704 -1.492709 2.738000 133 130 139
0.148218 -1.492709 2.738000 131 128 137
0.199368 -1.398938 2.566000 133 128 137
0.240691 -1.295898 2.377000 130 127 136
0.282469 -1.233748 2.263000 128 125 134
0.324958 -1.193949 2.190000 128 123 132
0.375356 -1.190133 2.183000 128 126 132
0.423664 -1.181410 2.167000 127 124 128
0.481515 -1.198311 2.198000 126 125 129
0.531364 -1.193949 2.190000 127 124 128
0.570720 -1.168871 2.144000 126 123 127
-1.715274 -1.171939 2.160000 102 103 88
-1.618147 -1.139385 2.100000 105 106 91
-1.641871 -1.192556 2.198000 106 107 92
-1.767319 -1.325485 2.443000 106 107 94
-1.826633 -1.416093 2.610000 105 105 94
-1.843586 -1.479030 2.726000 104 107 92
-1.803506 -1.499105 2.763000 104 107 94
-1.722674 -1.485541 2.738000 104 107 94
-1.680568 -1.505616 2.775000 106 107 94
-1.615183 -1.505616 2.775000 105 107 96
-1.522432 -1.479030 2.726000 107 107 96
-1.458201 -1.479030 2.726000 108 109 96
-1.375561 -1.459498 2.690000 106 109 94
-1.323886 -1.472520 2.714000 108 109 96
-1.271080 -1.485541 2.738000 106 107 94
-1.185414 -1.459498 2.690000 104 105 92
-1.052791 -1.369432 2.524000 104 104 93
-0.939010 -1.294558 2.386000 104 104 93
-0.831362 -1.219142 2.247000 100 101 93
-0.769757 -1.205578 2.222000 119 118 110
-0.725473 -1.219142 2.247000 115 121 114
-0.690187 -1.251153 2.306000 115 115 115
-0.638058 -1.255494 2.314000 110 110 111
-0.588074 -1.265260 2.332000 131 130 127
-0.537242 -1.275026 2.350000 113 111 112
-0.497045 -1.315176 2.424000 124 123 120
-0.459894 -1.374858 2.534000 106 110 110
-0.421191 -1.447019 2.667000 123 122 119
-0.355260 -1.434540 2.644000 123 121 121
-0.291632 -1.428029 2.632000 126 124 124
-0.235723 -1.466009 2.702000 125 123 124
-0.174350 -1.485541 2.738000 126 124 124
-0.107429 -1.452987 2.678000 137 134 138
-0.044148 -1.447019 2.667000 138 134 140
0.018854 -1.459498 2.690000 136 134 140
0.083704 -1.485541 2.738000 133 130 139
0.148867 -1.492052 2.750000 131 128 137
0.200222 -1.398188 2.577000 133 128 137
0.240691 -1.289675 2.377000 130 127 136
0.282469 -1.227823 2.263000 128 125 134
0.323919 -1.184418 2.183000 128 124 130
0.371401 -1.171939 2.160000 126 124 130
0.423664 -1.175737 2.167000 127 124 128
0.481515 -1.192556 2.198000 125 124 128
0.531364 -1.188216 2.190000 127 124 128
0.574979 -1.171939 2.160000 126 124 125
-1.708921 -1.161964 2.152000 102 103 88
-1.624311 -1.138207 2.108000 105 106 91
-1.653822 -1.195441 2.214000 105 106 91
-1.781787 -1.329888 2.463000 106 107 94
-1.826633 -1.409260 2.610000 105 106 93
-1.843586 -1.471893 2.726000 105 106 91
-1.803506 -1.491872 2.763000 103 106 93
-1.730224 -1.484852 2.750000 104 107 94
-1.688441 -1.505370 2.788000 106 107 94
-1.630316 -1.512389 2.801000 105 108 95
-1.522432 -1.471893 2.726000 107 108 95
-1.458201 -1.471893 2.726000 108 109 94
-1.375561 -1.452455 2.690000 106 109 96
-1.318032 -1.458935 2.702000 108 109 96
-1.271080 -1.478373 2.738000 105 106 93
-1.185414 -1.452455 2.690000 104 105 92
-1.056962 -1.368224 2.534000 104 104 93
-0.942945 -1.293711 2.396000 104 104 93
-0.834322 -1.217579 2.255000 102 103 95
-0.769757 -1.199761 2.222000 112 112 106
-0.725473 -1.213259 2.247000 115 121 114
-0.692582 -1.249436 2.314000 115 115 115
-0.638058 -1.249436 2.314000 110 110 111
-0.588074 -1.259155 2.332000 129 126 123
-0.535185 -1.264014 2.341000 113 111 111
-0.493149 -1.298571 2.405000 121 119 119
-0.456264 -1.357425 2.514000 108 108 109
-0.415664 -1.421139 2.632000 122 123 120
-0.356738 -1.433557 2.655000 124 122 122
-0.292961 -1.427618 2.644000 126 124 124
-0.235723 -1.458935 2.702000 125 123 124
-0.173586 -1.471893 2.726000 130 128 129
-0.106988 -1.440037 2.667000 138 135 139
-0.043949 -1.433557 2.655000 138 134 140
0.018770 -1.445976 2.678000 135 133 139
0.083704 -1.478373 2.738000 133 130 139
0.148867 -1.484852 2.750000 131 128 137
0.199368 -1.385502 2.566000 133 128 137
0.239779 -1.278593 2.368000 132 127 136
0.281470 -1.217579 2.255000 129 126 135
0.323919 -1.178703 2.183000 130 126 132
0.371401 -1.166284 2.160000 130 126 132
0.422296 -1.166284 2.160000 128 125 129
0.481515 -1.186802 2.198000 127 124 128
0.533305 -1.186802 2.198000 127 124 128
0.574979 -1.166284 2.160000 126 124 125
-1.715274 -1.160629 2.160000 102 103 88
-1.624311 -1.132688 2.108000 105 106 91
-1.659798 -1.193943 2.222000 103 106 93
-1.803490 -1.339559 2.493000 107 105 91
-1.834331 -1.408337 2.621000 105 106 93
-1.851701 -1.471205 2.738000 105 106 91
-1.795021 -1.477653 2.750000 104 107 94
-1.738404 -1.484638 2.763000 104 107 94
-1.696314 -1.505056 2.801000 106 107 94
-1.637301 -1.511504 2.813000 105 108 95
-1.529134 -1.471205 2.738000 107 108 95
-1.458201 -1.464757 2.726000 108 109 94
-1.375561 -1.445413 2.690000 108 109 94
-1.323886 -1.458309 2.714000 108 109 96
-1.276651 -1.477653 2.750000 105 106 91
-1.190702 -1.451861 2.702000 102 102 91
-1.061550 -1.367500 2.545000 104 104 93
-0.950423 -1.297648 2.415000 105 105 94
-0.840611 -1.220810 2.272000 102 104 93
-0.766985 -1.189645 2.214000 111 111 105
-0.725473 -1.207377 2.247000 118 120 114
-0.697969 -1.253049 2.332000 116 116 116
-0.640540 -1.248213 2.323000 111 111 112
-0.588074 -1.253049 2.332000 128 122 120
-0.533127 -1.253049 2.332000 113 111 111
-0.489253 -1.282065 2.386000 117 117 118
-0.454267 -1.344932 2.503000 107 107 108
-0.412189 -1.402427 2.610000 121 122 119
-0.358350 -1.433054 2.667000 124 122 122
-0.294180 -1.426606 2.655000 126 124 124
-0.235723 -1.451861 2.702000 125 123 123
-0.172822 -1.458309 2.714000 132 130 131
-0.106988 -1.433054 2.667000 138 135 139
-0.043767 -1.420696 2.644000 136 133 142
0.018693 -1.433054 2.667000 135 133 139
0.083337 -1.464757 2.726000 132 129 138
0.148218 -1.471205 2.738000 131 127 138
0.197736 -1.367500 2.545000 134 129 138
0.237957 -1.262721 2.350000 132 127 136
0.280472 -1.207377 2.247000 129 126 135
0.323919 -1.172987 2.183000 130 126 132
0.371401 -1.160629 2.160000 130 126 132
0.423664 -1.164390 2.167000 128 125 129
0.481515 -1.181047 2.198000 126 123 127
0.535246 -1.185346 2.206000 126 123 127
0.576843 -1.164390 2.167000 125 122 126
-1.685729 -1.146419 2.144000 104 102 90
-1.624534 -1.138933 2.130000 105 106 91
-1.736955 -1.256569 2.350000 101 102 89
-1.828275 -1.366184 2.555000 105 106 91
-1.853190 -1.431954 2.678000 105 106 91
-1.838218 -1.470453 2.750000 106 107 92
-1.765683 -1.464037 2.738000 105 108 95
-1.724159 -1.483821 2.775000 105 108 95
-1.689259 -1.511091 2.826000 107 108 95
-1.608317 -1.497723 2.801000 104 107 94
-1.507629 -1.464037 2.738000 108 109 94
-1.430466 -1.451203 2.714000 109 110 95
-1.354434 -1.438370 2.690000 107 108 93
-1.308329 -1.457620 2.726000 105 106 91
-1.260985 -1.477404 2.763000 104 105 92
-1.149138 -1.419656 2.655000 102 102 91
-1.032967 -1.349609 2.524000 104 104 93
-0.924127 -1.281166 2.396000 105 105 94
-0.813714 -1.201494 2.247000 105 107 96
-0.752305 -1.188126 2.222000 124 124 118
-0.723575 -1.228229 2.297000 118 118 118
-0.679653 -1.246944 2.332000 115 115 116
-0.622295 -1.242132 2.323000 110 110 111
-0.569759 -1.246944 2.332000 132 129 126
-0.512825 -1.242132 2.323000 113 111 111
-0.472485 -1.281166 2.396000 125 126 123
-0.438255 -1.349609 2.524000 109 109 109
-0.396793 -1.413774 2.644000 124 122 122
-0.337404 -1.426072 2.667000 127 123 123
-0.274563 -1.426072 2.667000 126 124 124
-0.214501 -1.444787 2.702000 126 124 124
-0.151506 -1.451203 2.714000 135 133 134
-0.085654 -1.419656 2.655000 138 134 140
-0.023096 -1.419656 2.655000 136 134 140
0.039982 -1.438370 2.690000 133 130 139
0.104748 -1.457620 2.726000 135 130 139
0.166003 -1.431954 2.678000 134 129 138
0.209854 -1.311644 2.453000 133 128 137
0.249649 -1.223417 2.288000 132 127 136
0.293741 -1.183848 2.214000 128 125 134
0.339815 -1.162995 2.175000 130 126 132
0.391063 -1.162995 2.175000 128 124 130
0.442311 -1.162995 2.175000 127 124 128
0.500594 -1.179571 2.206000 126 123 127
0.548564 -1.171015 2.190000 125 123 124
0.591944 -1.154974 2.160000 125 122 126
-1.698309 -1.149319 2.160000 104 102 88
-1.641313 -1.145062 2.152000 105 106 91
-1.763564 -1.269572 2.386000 102 103 90
-1.836146 -1.365349 2.566000 104 105 92
-1.869798 -1.437713 2.702000 105 106 93
-1.838218 -1.463253 2.750000 105 106 93
-1.765683 -1.456868 2.738000 105 108 95
-1.732236 -1.483473 2.788000 104 107 94
-1.689259 -1.503692 2.826000 106 107 94
-1.615207 -1.496775 2.813000 104 107 94
-1.521395 -1.470171 2.763000 108 109 94
-1.443116 -1.456868 2.738000 109 110 95
-1.354434 -1.431328 2.690000 107 108 93
-1.308329 -1.450483 2.726000 105 106 91
-1.255052 -1.463253 2.750000 102 103 88
-1.149138 -1.412705 2.655000 102 102 91
-1.041561 -1.354175 2.545000 104 104 93
-0.934926 -1.289791 2.424000 104 104 93
-0.819508 -1.204124 2.263000 106 107 99
-0.752305 -1.182309 2.222000 119 118 115
-0.723575 -1.222216 2.297000 118 118 118
-0.679653 -1.240839 2.332000 115 115 116
-0.624706 -1.240839 2.332000 111 111 112
-0.569759 -1.240839 2.332000 132 128 128
-0.509072 -1.227004 2.306000 111 111 112
-0.470513 -1.269572 2.386000 124 124 124
-0.436519 -1.337680 2.514000 104 104 104
-0.394992 -1.400467 2.632000 124 123 120
-0.338795 -1.424943 2.678000 127 123 123
-0.275695 -1.424943 2.678000 126 124 125
-0.214501 -1.437713 2.702000 128 126 127
-0.151506 -1.444098 2.714000 135 133 134
-0.086396 -1.424943 2.678000 138 134 140
-0.023001 -1.406852 2.644000 136 134 140
0.039982 -1.431328 2.690000 133 130 139
0.103825 -1.437713 2.702000 135 130 139
0.163152 -1.400467 2.632000 134 129 138
0.206603 -1.285003 2.415000 134 129 138
0.248776 -1.213170 2.280000 132 127 136
0.292680 -1.173795 2.206000 128 125 134
0.341065 -1.161557 2.183000 130 126 132
0.392501 -1.161557 2.183000 128 124 130
0.443938 -1.161557 2.183000 127 124 128
0.498778 -1.169539 2.198000 126 123 127
0.548564 -1.165282 2.190000 125 123 124
0.593862 -1.153044 2.167000 125 122 126
-1.680751 -1.139428 2.152000 107 105 91
-1.664888 -1.163784 2.198000 104 105 90
-1.822258 -1.314684 2.483000 104 105 90
-1.853965 -1.381927 2.610000 102 103 90
-1.880374 -1.449700 2.738000 105 106 93
-1.799944 -1.436993 2.714000 106 107 92
-1.759023 -1.456054 2.750000 104 107 94
-1.733040 -1.489411 2.813000 104 107 94
-1.682165 -1.503177 2.839000 107 107 96
-1.593651 -1.483057 2.801000 108 109 96
-1.506928 -1.462937 2.763000 107 108 93
-1.422517 -1.443346 2.726000 107 108 93
-1.340349 -1.424285 2.690000 107 108 95
-1.299752 -1.449700 2.738000 105 106 91
-1.240653 -1.456054 2.750000 104 104 93
-1.130532 -1.399930 2.644000 105 105 94
-1.032276 -1.352806 2.555000 100 102 91
-0.918810 -1.278680 2.415000 105 106 93
-0.804803 -1.193964 2.255000 105 108 100
-0.743337 -1.180727 2.230000 128 127 124
-0.716814 -1.225203 2.314000 118 118 118
-0.667443 -1.234734 2.332000 114 114 115
-0.612495 -1.234734 2.332000 109 109 110
-0.553245 -1.225203 2.314000 134 131 128
-0.498722 -1.225203 2.314000 110 109 113
-0.461667 -1.273385 2.405000 126 124 124
-0.425039 -1.336393 2.524000 116 118 112
-0.382948 -1.399930 2.644000 125 122 119
-0.327684 -1.430639 2.702000 127 124 121
-0.261673 -1.417932 2.678000 126 124 125
-0.199463 -1.424285 2.690000 133 131 132
-0.137902 -1.443346 2.726000 137 135 136
-0.072374 -1.417932 2.678000 138 135 139
-0.009195 -1.405754 2.655000 136 134 140
0.054067 -1.424285 2.690000 135 130 139
0.116925 -1.417932 2.678000 134 129 138
0.170345 -1.341687 2.534000 137 132 141
0.214164 -1.249030 2.359000 132 127 136
0.256941 -1.189728 2.247000 131 126 135
0.303127 -1.163784 2.198000 126 124 130
0.352495 -1.155842 2.183000 126 124 130
0.405227 -1.159548 2.190000 128 124 130
0.455368 -1.155842 2.183000 127 124 128
0.512144 -1.168020 2.206000 125 122 126
0.560031 -1.159548 2.190000 125 123 124
-1.721492 -1.145912 2.175000 104 102 88
-1.670244 -1.145912 2.175000 104 102 88
-1.783501 -1.262347 2.396000 104 105 90
-1.849582 -1.351913 2.566000 107 105 91
-1.892313 -1.429887 2.714000 105 106 91
-1.844533 -1.442532 2.738000 105 106 93
-1.764417 -1.429887 2.714000 105 106 91
-1.754979 -1.475724 2.801000 101 106 93
-1.704056 -1.488895 2.826000 107 107 96
-1.645002 -1.495744 2.839000 105 107 96
-1.549759 -1.468875 2.788000 108 109 94
-1.477147 -1.462026 2.775000 108 109 94
-1.380729 -1.429887 2.714000 108 109 94
-1.322603 -1.436210 2.726000 106 107 94
-1.275452 -1.455703 2.763000 104 105 90
-1.183628 -1.423565 2.702000 104 105 92
-1.081829 -1.375094 2.610000 105 105 94
-0.982802 -1.324516 2.514000 105 105 94
-0.860012 -1.233370 2.341000 109 111 100
-0.763939 -1.170674 2.222000 108 110 104
-0.724714 -1.192275 2.263000 121 119 113
-0.691864 -1.228628 2.332000 117 117 117
-0.636916 -1.228628 2.332000 110 109 113
-0.581969 -1.228628 2.332000 111 110 114
-0.521146 -1.214930 2.306000 111 111 112
-0.477541 -1.242854 2.359000 106 109 112
-0.442348 -1.302915 2.473000 106 104 104
-0.403648 -1.369299 2.599000 137 136 133
-0.355979 -1.423565 2.702000 125 122 119
-0.293612 -1.429887 2.714000 128 124 124
-0.227633 -1.417243 2.690000 131 129 130
-0.165716 -1.429887 2.714000 135 133 134
-0.102218 -1.436210 2.726000 139 136 140
-0.037165 -1.405125 2.667000 140 136 142
0.025675 -1.405125 2.667000 137 132 141
0.088516 -1.405125 2.667000 137 132 141
0.147497 -1.369299 2.599000 132 127 136
0.191629 -1.257079 2.386000 133 128 137
0.236007 -1.197017 2.272000 132 127 136
0.280110 -1.158030 2.198000 128 125 134
0.330692 -1.153815 2.190000 126 124 130
0.385086 -1.162245 2.206000 128 126 132
0.433894 -1.153815 2.190000 128 125 129
0.485496 -1.153815 2.190000 127 124 128
0.537097 -1.153815 2.190000 125 122 126
-1.722108 -1.144412 2.183000 106 104 90
-1.694397 -1.160663 2.214000 104 105 90
-1.826925 -1.291198 2.463000 102 103 88
-1.858664 -1.356728 2.588000 104 105 92
-1.893543 -1.429073 2.726000 105 106 91
-1.829312 -1.429073 2.726000 102 105 90
-1.757312 -1.422782 2.714000 106 107 92
-1.747646 -1.468391 2.801000 103 106 93
-1.688853 -1.474682 2.813000 107 107 96
-1.637569 -1.488312 2.839000 109 110 97
-1.549652 -1.468391 2.801000 108 109 94
-1.476768 -1.461576 2.788000 107 108 95
-1.379697 -1.429073 2.726000 108 109 94
-1.321257 -1.435364 2.738000 103 106 93
-1.268218 -1.448470 2.763000 104 105 90
-1.176554 -1.416491 2.702000 102 102 91
-1.084057 -1.379795 2.632000 105 105 94
-0.983987 -1.328419 2.534000 107 107 96
-0.853883 -1.227241 2.341000 110 110 104
-0.760852 -1.169051 2.230000 108 109 106
-0.724189 -1.195263 2.280000 122 120 114
-0.683112 -1.217805 2.323000 117 115 116
-0.630811 -1.222523 2.332000 112 112 113
-0.573642 -1.217805 2.323000 119 117 117
-0.516896 -1.213087 2.314000 116 115 112
-0.474961 -1.246114 2.377000 108 111 114
-0.437637 -1.301683 2.483000 107 105 105
-0.396844 -1.362495 2.599000 132 131 128
-0.352005 -1.429073 2.726000 126 122 122
-0.287774 -1.429073 2.726000 129 125 125
-0.221575 -1.416491 2.702000 135 133 134
-0.160715 -1.441655 2.750000 137 135 136
-0.095500 -1.435364 2.738000 139 136 140
-0.030183 -1.398143 2.667000 139 135 141
0.032658 -1.398143 2.667000 137 132 141
0.093851 -1.374028 2.621000 134 129 138
0.150443 -1.328419 2.534000 130 127 136
0.195636 -1.236678 2.359000 133 128 137
0.239293 -1.177963 2.247000 132 127 136
0.283913 -1.144412 2.183000 128 126 132
0.338883 -1.156469 2.206000 128 126 132
0.393696 -1.164857 2.222000 126 124 130
0.439628 -1.148081 2.190000 128 125 129
0.491229 -1.148081 2.190000 126 123 127
0.542831 -1.148081 2.190000 124 121 125
-1.716164 -1.142348 2.190000 104 102 88
-1.745890 -1.198161 2.297000 104 105 90
-1.874422 -1.327523 2.545000 102 103 88
-1.876483 -1.372904 2.632000 105 106 93
-1.895815 -1.434455 2.750000 105 106 93
-1.799059 -1.409417 2.702000 106 107 92
-1.750808 -1.421936 2.726000 107 108 93
-1.724937 -1.454277 2.788000 103 106 93
-1.674124 -1.467317 2.813000 107 108 95
-1.615273 -1.474098 2.826000 108 109 96
-1.541562 -1.467317 2.813000 107 108 93
-1.462170 -1.454277 2.788000 108 109 96
-1.371434 -1.428196 2.738000 106 107 92
-1.318854 -1.441236 2.763000 104 105 92
-1.259196 -1.447496 2.775000 104 105 92
-1.162406 -1.409417 2.702000 105 105 94
-1.075156 -1.379163 2.644000 104 104 93
-0.966888 -1.316569 2.524000 109 109 98
-0.835154 -1.211723 2.323000 109 111 105
-0.751863 -1.167386 2.238000 112 111 108
-0.717562 -1.198161 2.297000 120 120 114
-0.668349 -1.207029 2.314000 115 115 116
-0.620988 -1.221112 2.341000 108 112 112
-0.559303 -1.207029 2.314000 121 121 121
-0.512633 -1.225807 2.350000 114 113 117
-0.467963 -1.254496 2.405000 112 112 113
-0.428056 -1.305615 2.503000 102 102 102
-0.388101 -1.372904 2.632000 121 120 117
-0.340704 -1.434455 2.750000 126 122 122
-0.273500 -1.421936 2.726000 129 125 126
-0.208348 -1.415677 2.714000 135 133 134
-0.147646 -1.447496 2.775000 137 134 138
-0.081164 -1.428196 2.738000 138 134 140
-0.016218 -1.391161 2.667000 139 135 141
0.046412 -1.384901 2.655000 137 132 141
0.105769 -1.344215 2.577000 133 130 139
0.158478 -1.279534 2.453000 133 130 139
0.203315 -1.202856 2.306000 133 128 137
0.248265 -1.159040 2.222000 132 127 136
0.295344 -1.138697 2.183000 128 127 131
0.351705 -1.154867 2.214000 126 124 130
0.406790 -1.163213 2.230000 126 125 129
0.451095 -1.142348 2.190000 128 125 129
0.502696 -1.142348 2.190000 125 122 126
0.554298 -1.142348 2.190000 125 122 126
-1.717582 -1.149070 2.214000 104 102 88
-1.823381 -1.258061 2.424000 104 105 90
-1.885766 -1.343177 2.588000 105 106 91
-1.888246 -1.389887 2.678000 104 104 93
-1.874216 -1.427256 2.750000 100 103 90
-1.762046 -1.389887 2.678000 106 107 92
-1.744624 -1.427256 2.750000 104 107 94
-1.695098 -1.440231 2.775000 106 107 94
-1.652030 -1.459953 2.813000 107 108 95
-1.593078 -1.466700 2.826000 110 108 94
-1.526491 -1.466700 2.826000 108 108 97
-1.440273 -1.446978 2.788000 107 108 93
-1.355846 -1.427256 2.750000 105 106 91
-1.302786 -1.440231 2.775000 104 105 92
-1.232050 -1.434003 2.763000 105 106 93
-1.141184 -1.402343 2.702000 105 105 94
-1.058776 -1.377950 2.655000 106 106 95
-0.931680 -1.288682 2.483000 112 112 106
-0.801788 -1.183325 2.280000 108 109 106
-0.737238 -1.166198 2.247000 122 119 116
-0.702262 -1.196819 2.306000 120 118 118
-0.652704 -1.205642 2.323000 115 115 116
-0.602602 -1.214984 2.341000 108 111 114
-0.543233 -1.205642 2.323000 129 129 129
-0.505742 -1.248200 2.405000 108 112 112
-0.458037 -1.273112 2.453000 123 123 123
-0.411823 -1.309961 2.524000 112 110 110
-0.375526 -1.396115 2.690000 123 120 117
-0.322007 -1.440231 2.775000 126 122 122
-0.253200 -1.421027 2.738000 135 133 134
-0.189513 -1.427256 2.750000 137 135 136
-0.127030 -1.453725 2.801000 138 135 139
-0.058875 -1.402343 2.702000 139 135 141
0.004729 -1.384178 2.667000 138 133 142
0.066125 -1.354595 2.610000 135 132 141
0.123906 -1.315151 2.534000 133 130 139
0.172889 -1.238339 2.386000 132 129 138
0.218162 -1.179173 2.272000 133 128 137
0.262846 -1.140766 2.198000 130 126 132
0.314636 -1.140766 2.198000 128 127 131
0.374595 -1.166198 2.247000 126 125 129
0.424305 -1.157374 2.230000 128 125 129
0.465088 -1.128829 2.175000 127 124 128
0.519897 -1.136614 2.190000 126 123 127
-1.734971 -1.143274 2.214000 103 101 87
-1.806696 -1.227445 2.377000 104 105 90
-1.897991 -1.330722 2.577000 102 103 88
-1.885038 -1.365319 2.644000 105 106 93
-1.887542 -1.413859 2.738000 104 105 90
-1.783079 -1.382876 2.678000 105 106 91
-1.750808 -1.407663 2.726000 107 108 93
-1.716894 -1.432965 2.775000 105 106 93
-1.651508 -1.432965 2.775000 107 108 95
-1.607843 -1.452588 2.813000 110 108 94
-1.548686 -1.459301 2.826000 107 108 95
-1.475281 -1.452588 2.813000 107 108 93
-1.389967 -1.432965 2.775000 106 107 92
-1.330787 -1.439678 2.788000 104 105 92
-1.265095 -1.439678 2.788000 104 105 92
-1.177893 -1.413859 2.738000 103 105 94
-1.093861 -1.389073 2.690000 106 106 95
-0.982977 -1.325041 2.566000 112 113 105
-0.851332 -1.222797 2.368000 109 111 105
-0.754886 -1.160315 2.247000 108 109 106
-0.712251 -1.177356 2.280000 120 117 114
-0.668349 -1.194913 2.314000 116 116 116
-0.620988 -1.208855 2.341000 108 112 112
-0.561478 -1.199560 2.323000 108 111 114
-0.522667 -1.237256 2.396000 116 114 115
-0.477303 -1.266690 2.453000 105 109 109
-0.426346 -1.287345 2.493000 105 103 103
-0.389870 -1.365319 2.644000 133 132 129
-0.343802 -1.432965 2.775000 126 122 122
-0.277212 -1.426769 2.763000 128 126 127
-0.212110 -1.426769 2.763000 137 134 138
-0.149668 -1.452588 2.813000 137 134 138
-0.081519 -1.420056 2.750000 138 134 140
-0.016145 -1.370999 2.655000 140 136 142
0.046010 -1.359123 2.632000 137 132 141
0.104004 -1.308517 2.534000 135 130 139
0.157250 -1.256879 2.434000 133 130 139
0.201728 -1.181487 2.288000 130 127 136
0.248265 -1.147405 2.222000 130 127 136
0.297373 -1.135012 2.198000 128 126 132
0.355517 -1.155667 2.238000 128 127 131
0.409891 -1.160315 2.247000 126 125 129
0.449653 -1.127266 2.183000 126 125 129
0.501089 -1.127266 2.183000 123 122 126
-1.741671 -1.145698 2.230000 103 101 87
-1.843648 -1.250506 2.434000 104 102 88
-1.907390 -1.335278 2.599000 104 105 90
-1.878116 -1.358397 2.644000 105 106 93
-1.872133 -1.400526 2.726000 104 105 90
-1.776068 -1.375865 2.678000 106 107 92
-1.751347 -1.406691 2.738000 104 107 92
-1.702236 -1.419535 2.763000 105 106 93
-1.637133 -1.419535 2.763000 108 106 92
-1.600478 -1.445224 2.813000 109 107 93
-1.548378 -1.458582 2.839000 107 108 95
-1.474701 -1.451903 2.826000 106 107 92
-1.395657 -1.439058 2.801000 105 106 91
-1.329659 -1.439058 2.801000 104 105 92
-1.263661 -1.439058 2.801000 103 105 94
-1.170725 -1.406691 2.738000 103 105 94
-1.086819 -1.382030 2.690000 106 106 95
-0.976259 -1.318323 2.566000 116 116 110
-0.845133 -1.216598 2.368000 109 110 107
-0.751670 -1.158542 2.255000 107 107 107
-0.706282 -1.171386 2.280000 122 118 118
-0.662291 -1.188854 2.314000 116 116 116
-0.617223 -1.207350 2.350000 108 112 112
-0.557548 -1.198102 2.332000 111 114 117
-0.522429 -1.245369 2.424000 115 115 116
-0.474720 -1.270543 2.473000 104 107 110
-0.419819 -1.280818 2.493000 106 104 105
-0.386280 -1.370214 2.667000 128 128 122
-0.338113 -1.432379 2.788000 126 122 122
-0.271151 -1.425700 2.775000 134 132 133
-0.205766 -1.425700 2.775000 138 135 139
-0.142961 -1.451903 2.826000 138 135 139
-0.073671 -1.400526 2.726000 138 134 140
-0.009236 -1.370214 2.667000 139 135 141
0.052459 -1.340929 2.610000 135 131 137
0.110202 -1.296745 2.524000 135 131 137
0.162345 -1.240745 2.415000 131 129 135
0.206992 -1.171386 2.280000 130 127 136
0.254082 -1.141588 2.222000 130 128 134
0.305334 -1.137478 2.214000 128 126 132
0.364121 -1.158542 2.255000 126 125 129
0.414109 -1.149808 2.238000 125 124 128
0.453699 -1.117441 2.175000 125 124 128
-1.762577 -1.161328 2.272000 103 102 85
-1.898603 -1.290137 2.524000 102 103 88
-1.909812 -1.339719 2.621000 104 105 92
-1.872028 -1.357098 2.655000 104 104 93
-1.841503 -1.381122 2.702000 104 105 90
-1.769942 -1.374988 2.690000 106 107 92
-1.744624 -1.405657 2.750000 103 106 91
-1.672497 -1.399523 2.738000 106 107 94
-1.622666 -1.412302 2.763000 110 108 94
-1.585749 -1.437859 2.813000 110 108 94
-1.533513 -1.451149 2.839000 108 108 97
-1.459904 -1.444504 2.826000 109 107 93
-1.386907 -1.437859 2.813000 102 104 86
-1.320626 -1.437859 2.813000 104 105 92
-1.248995 -1.431725 2.801000 104 106 95
-1.146253 -1.387255 2.714000 105 105 94
-1.067948 -1.368854 2.678000 111 111 100
-0.954944 -1.300871 2.545000 112 113 110
-0.823239 -1.196597 2.341000 110 111 108
-0.739863 -1.152639 2.255000 110 110 110
-0.696780 -1.169506 2.288000 121 119 119
-0.652704 -1.187397 2.323000 117 117 118
-0.602602 -1.196597 2.341000 112 112 113
-0.547442 -1.196597 2.341000 118 121 124
-0.520041 -1.264069 2.473000 109 113 113
-0.465506 -1.274292 2.493000 114 114 115
-0.410192 -1.285026 2.514000 106 104 104
-0.378876 -1.387255 2.714000 120 118 112
-0.325024 -1.431725 2.801000 120 116 116
-0.257823 -1.425080 2.788000 137 134 138
-0.193028 -1.431725 2.801000 137 134 138
-0.128753 -1.451149 2.839000 138 135 139
-0.058352 -1.368854 2.678000 139 135 141
0.004707 -1.357098 2.655000 139 135 141
0.065289 -1.317228 2.577000 135 131 137
0.121902 -1.274292 2.493000 134 129 138
0.172889 -1.219599 2.386000 132 130 136
0.217298 -1.156728 2.263000 131 128 137
0.266673 -1.139860 2.230000 129 127 133
0.321651 -1.148549 2.247000 126 124 130
0.377262 -1.156728 2.263000 126 125 129
0.422783 -1.135771 2.222000 128 125 129
-1.759185 -1.134022 2.230000 104 103 86
-1.833683 -1.218438 2.396000 99 101 83
-1.927803 -1.321669 2.599000 101 102 87
-1.882364 -1.332857 2.621000 104 105 92
-1.860201 -1.361843 2.678000 102 103 90
-1.813207 -1.374048 2.702000 104 105 90
-1.757312 -1.380150 2.714000 105 106 91
-1.723936 -1.405068 2.763000 106 107 94
-1.636620 -1.386252 2.726000 106 106 95
-1.600653 -1.411170 2.775000 110 108 94
-1.563483 -1.437105 2.826000 109 107 93
-1.503782 -1.443716 2.839000 107 108 95
-1.436889 -1.443716 2.839000 107 105 91
-1.363722 -1.437105 2.826000 102 103 88
-1.297135 -1.437105 2.826000 105 105 94
-1.203116 -1.405068 2.763000 107 107 96
-1.112889 -1.374048 2.702000 106 108 97
-1.022042 -1.338451 2.632000 114 113 110
-0.905678 -1.262680 2.483000 108 114 107
-0.783711 -1.168093 2.297000 109 109 109
-0.718789 -1.150803 2.263000 125 126 123
-0.678113 -1.172670 2.306000 119 117 117
-0.633246 -1.190468 2.341000 112 112 113
-0.575864 -1.185892 2.332000 110 109 113
-0.537223 -1.223014 2.405000 128 128 128
-0.500138 -1.272850 2.503000 108 111 114
-0.435874 -1.257594 2.473000 123 122 119
-0.396844 -1.321669 2.599000 116 113 110
-0.356782 -1.405068 2.763000 122 119 116
-0.296958 -1.430495 2.813000 121 117 117
-0.229693 -1.424392 2.801000 139 136 140
-0.164397 -1.430495 2.813000 138 135 139
-0.096791 -1.411170 2.775000 138 135 139
-0.029923 -1.344553 2.644000 139 135 141
0.032094 -1.332857 2.621000 137 133 139
0.090378 -1.283529 2.524000 135 131 137
0.146227 -1.252509 2.463000 133 129 135
0.192651 -1.181315 2.323000 131 128 137
0.240144 -1.146735 2.255000 130 128 134
0.291066 -1.138090 2.238000 129 127 133
0.347639 -1.150803 2.263000 126 125 129
0.399543 -1.146735 2.255000 126 125 129
0.435011 -1.101984 2.167000 126 123 127
-1.788954 -1.166633 2.306000 104 103 86
-1.921922 -1.292605 2.555000 102 103 88
-1.909812 -1.325995 2.621000 102 103 90
-1.864272 -1.337631 2.644000 102 102 91
-1.833324 -1.360903 2.690000 104 105 92
-1.785733 -1.373045 2.714000 105 106 93
-1.744624 -1.391258 2.750000 106 107 94
-1.672497 -1.385187 2.738000 107 108 95
-1.607984 -1.385187 2.738000 109 107 93
-1.585749 -1.423130 2.813000 109 107 93
-1.526491 -1.429707 2.826000 108 108 97
-1.459904 -1.429707 2.826000 106 104 90
-1.406629 -1.443367 2.853000 106 104 90
-1.320626 -1.423130 2.813000 105 105 94
-1.254346 -1.423130 2.813000 106 106 95
-1.151321 -1.379116 2.726000 106 106 95
-1.063562 -1.349267 2.667000 113 114 106
-0.958696 -1.292605 2.555000 114 115 112
-0.842580 -1.212165 2.396000 110 111 108
-0.739863 -1.140831 2.255000 110 110 110
-0.696780 -1.157526 2.288000 121 118 115
-0.655232 -1.179786 2.332000 119 117 117
-0.604918 -1.188893 2.350000 112 112 113
-0.547442 -1.184340 2.341000 112 111 115
-0.526350 -1.266297 2.503000 111 115 115
-0.465506 -1.261238 2.493000 109 109 110
-0.408397 -1.266297 2.503000 105 103 103
-0.377201 -1.366974 2.702000 128 123 118
-0.326416 -1.423130 2.813000 120 114 112
-0.260135 -1.423130 2.813000 139 135 136
-0.193028 -1.417059 2.801000 137 135 136
-0.128753 -1.436284 2.839000 138 135 139
-0.057851 -1.343196 2.655000 138 134 140
0.004647 -1.325995 2.621000 140 136 142
0.064478 -1.287546 2.545000 135 131 137
0.120924 -1.251120 2.473000 134 129 138
0.172889 -1.207106 2.386000 133 131 137
0.218930 -1.153479 2.280000 130 127 136
0.269663 -1.140831 2.255000 129 127 133
0.325229 -1.149432 2.272000 126 124 130
0.378763 -1.149432 2.272000 130 127 131
0.418216 -1.111994 2.198000 128 125 129
-1.785218 -1.138954 2.263000 104 103 86
-1.862765 -1.225017 2.434000 100 102 84
-1.935962 -1.313597 2.610000 99 102 87
-1.890264 -1.324669 2.632000 102 103 90
-1.852560 -1.342285 2.667000 102 103 90
-1.829312 -1.371979 2.726000 104 105 92
-1.772852 -1.378018 2.738000 105 106 93
-1.731424 -1.396640 2.775000 107 108 95
-1.636620 -1.371979 2.726000 107 108 93
-1.600653 -1.396640 2.775000 110 108 94
-1.570676 -1.428851 2.839000 107 108 93
-1.490010 -1.415766 2.813000 106 107 92
-1.450554 -1.442440 2.866000 108 106 92
-1.363722 -1.422308 2.826000 104 105 92
-1.291168 -1.415766 2.813000 107 105 93
-1.214002 -1.403183 2.788000 106 106 95
-1.103004 -1.347821 2.678000 112 112 101
-1.017770 -1.319133 2.621000 118 117 114
-0.916985 -1.265281 2.514000 111 112 109
-0.795653 -1.173681 2.332000 110 110 110
-0.718789 -1.138954 2.263000 115 116 113
-0.680465 -1.164622 2.314000 120 119 116
-0.635680 -1.182740 2.350000 115 115 115
-0.578086 -1.178211 2.341000 111 110 114
-0.537223 -1.210422 2.405000 128 127 131
-0.502336 -1.265281 2.514000 109 112 115
-0.434111 -1.239613 2.463000 119 119 120
-0.396844 -1.308061 2.599000 106 105 102
-0.356782 -1.390601 2.763000 118 113 108
-0.298330 -1.422308 2.826000 132 125 127
-0.230677 -1.415766 2.813000 139 137 138
-0.164397 -1.415766 2.813000 138 136 137
-0.096791 -1.396640 2.775000 138 135 139
-0.029662 -1.319133 2.621000 139 135 141
0.031825 -1.308061 2.599000 137 133 139
0.088910 -1.249679 2.483000 135 131 137
0.144506 -1.225017 2.434000 134 129 138
0.192651 -1.169152 2.323000 133 128 137
0.241955 -1.143484 2.272000 130 128 134
0.297569 -1.151536 2.288000 128 126 132
0.351480 -1.151536 2.288000 128 124 130
0.399543 -1.134928 2.255000 127 124 128
0.428988 -1.075539 2.137000 127 124 128
-1.793999 -1.150052 2.297000 103 102 85
-1.919394 -1.268712 2.534000 101 103 85
-1.931608 -1.317779 2.632000 100 103 88
-1.861779 -1.312271 2.621000 105 106 93
-1.855650 -1.352826 2.702000 104 105 92
