0.244391 0.178320 1.267000 116 119 122
0.356494 0.154957 1.101000 122 116 122
0.444234 0.137505 0.977000 51 47 35
0.789286 0.187187 1.330000 136 138 132
0.327579 0.057423 0.408000 143 144 131
-0.778099 0.165581 1.155000 123 129 128
-0.638849 0.168735 1.177000 123 122 126
-0.487661 0.169738 1.184000 119 127 129
-0.337169 0.172032 1.200000 128 130 135
-0.185190 0.176906 1.234000 144 143 147
-0.023753 0.177623 1.239000 131 130 134
0.140445 0.180203 1.257000 133 130 134
0.309356 0.182784 1.275000 44 41 38
0.375028 0.143933 1.004000 107 112 108
0.682881 0.191099 1.333000 99 93 81
0.338902 0.067809 0.473000 30 28 16
-0.865805 0.168021 1.151000 117 130 128
-0.715137 0.168021 1.151000 127 131 130
-0.573788 0.170794 1.170000 130 133 136
-0.426385 0.173130 1.186000 129 136 140
-0.272279 0.173860 1.191000 147 143 144
-0.118427 0.176925 1.212000 136 135 139
0.041553 0.182764 1.252000 131 131 132
0.206590 0.183786 1.259000 126 125 129
0.359006 0.177655 1.217000 38 37 29
0.416524 0.142766 0.978000 45 42 32
0.746467 0.192983 1.322000 136 122 100
0.325119 0.061311 0.420000 60 57 40
-0.804138 0.170737 1.149000 133 137 136
-0.663405 0.173263 1.166000 116 125 124
-0.512526 0.173857 1.170000 122 129 133
-0.362135 0.175195 1.179000 139 141 146
-0.212385 0.179058 1.205000 144 146 151
-0.055420 0.181584 1.222000 126 123 127
0.106424 0.184853 1.244000 131 130 134
0.272080 0.186785 1.257000 102 102 103
0.358816 0.153500 1.033000 123 123 124
0.639719 0.195552 1.316000 55 49 37
0.350624 0.075190 0.506000 36 30 28
-0.871045 0.173291 1.146000 136 146 141
-0.717257 0.172384 1.140000 122 126 126
-0.578991 0.175711 1.162000 125 132 136
-0.431659 0.177676 1.175000 140 145 148
-0.279505 0.178735 1.182000 134 130 136
-0.126996 0.181910 1.203000 139 138 142
0.031517 0.188110 1.244000 137 134 138
0.195140 0.188866 1.249000 128 124 130
0.358636 0.188866 1.249000 37 36 28
0.410097 0.148341 0.981000 45 43 31
0.735137 0.197788 1.308000 123 110 90
0.325893 0.062603 0.414000 109 110 95
-0.771248 0.174753 1.136000 130 134 133
-0.635148 0.178291 1.159000 110 119 117
-0.486353 0.179368 1.166000 117 122 125
-0.335725 0.180445 1.173000 142 146 151
-0.187147 0.185368 1.205000 128 124 130
-0.029704 0.187214 1.217000 130 128 134
0.131733 0.190290 1.237000 132 134 139
0.297220 0.192598 1.252000 44 44 45
0.366464 0.151986 0.988000 119 119 119
0.677618 0.202443 1.316000 58 54 47
0.321579 0.066609 0.433000 29 30 15
-0.802547 0.177414 1.134000 122 127 123
-0.662757 0.179761 1.149000 121 127 126
-0.515918 0.181013 1.157000 120 124 129
-0.367300 0.182421 1.166000 139 142 150
-0.217615 0.184924 1.182000 132 134 139
-0.063847 0.187740 1.200000 135 137 142
0.095488 0.192277 1.229000 138 130 135
0.259495 0.194624 1.244000 96 96 96
0.352723 0.161300 1.031000 120 119 116
0.467342 0.154573 0.988000 47 43 29
0.351949 0.079164 0.506000 31 29 23
-0.831457 0.177679 1.117000 124 132 125
-0.692601 0.179588 1.129000 128 130 124
-0.555430 0.183087 1.151000 116 124 131
-0.410037 0.185473 1.166000 137 142 145
-0.259393 0.186905 1.175000 139 142 145
-0.107021 0.189450 1.191000 133 136 139
0.050155 0.194381 1.222000 135 134 138
0.211836 0.195972 1.232000 114 111 115
0.375227 0.197085 1.239000 71 74 61
0.424206 0.155569 0.978000 50 44 30
0.749242 0.205357 1.291000 119 107 90
0.327038 0.065218 0.410000 135 142 133
-0.734327 0.181897 1.125000 132 138 137
-0.593846 0.183999 1.138000 127 133 133
-0.450744 0.186424 1.153000 119 127 129
-0.302675 0.188203 1.164000 140 143 146
-0.152888 0.191436 1.184000 137 140 143
0.002161 0.197095 1.219000 123 125 130
0.163057 0.198712 1.229000 130 129 133
0.326571 0.200329 1.239000 34 34 28
0.389744 0.159746 0.988000 116 114 114
0.692592 0.206958 1.280000 65 55 46
0.325226 0.068393 0.423000 52 51 34
-0.753847 0.183856 1.119000 117 126 124
-0.618766 0.187307 1.140000 127 134 130
-0.471186 0.187964 1.144000 121 126 129
-0.324525 0.189771 1.155000 141 144 147
-0.176336 0.193057 1.175000 139 142 145
-0.023006 0.197165 1.200000 128 126 127
0.135976 0.199958 1.217000 132 127 136
0.298195 0.201930 1.229000 45 49 48
0.369757 0.161511 0.983000 127 125 125
0.674062 0.210802 1.283000 46 43 33
0.324549 0.071801 0.437000 24 27 14
-0.777283 0.186786 1.119000 123 135 130
-0.636442 0.188455 1.129000 128 134 127
-0.493415 0.190291 1.140000 107 117 119
-0.345999 0.191293 1.146000 140 144 144
-0.199064 0.194297 1.164000 132 129 133
-0.047417 0.197302 1.182000 134 136 141
0.109851 0.201976 1.210000 117 115 116
0.270902 0.203979 1.222000 90 89 93
0.348358 0.164919 0.988000 119 119 119
0.478172 0.165086 0.989000 43 41 29
0.338731 0.079789 0.478000 34 36 25
-0.803696 0.189037 1.115000 124 135 134
-0.658921 0.189376 1.117000 127 132 128
-0.518212 0.191411 1.129000 123 132 131
-0.374689 0.193615 1.142000 137 136 140
-0.227763 0.195819 1.155000 147 145 151
-0.078030 0.199549 1.177000 126 128 133
0.077721 0.203957 1.203000 132 134 139
0.237346 0.205822 1.214000 106 102 102
0.351875 0.179882 1.061000 105 105 105
0.453295 0.166149 0.980000 44 40 26
0.784593 0.218368 1.288000 108 99 81
0.329077 0.068155 0.402000 135 138 130
-0.682786 0.191612 1.113000 137 143 136
-0.541918 0.193334 1.123000 123 129 129
-0.400894 0.196260 1.140000 140 143 146
-0.252991 0.197293 1.146000 133 135 140
-0.105583 0.202286 1.175000 127 129 134
0.048965 0.205385 1.193000 131 128 132
0.208053 0.208311 1.210000 114 114 115
0.371593 0.211238 1.227000 86 85 82
0.422904 0.167854 0.975000 107 105 99
0.736618 0.219502 1.275000 82 70 61
0.326072 0.071790 0.417000 118 127 111
-0.709366 0.193827 1.109000 133 139 138
-0.567249 0.194875 1.115000 132 136 135
-0.427717 0.197847 1.132000 125 129 134
-0.281018 0.198895 1.138000 134 137 140
-0.134837 0.203090 1.162000 135 133 139
0.017672 0.207809 1.189000 131 130 134
0.175355 0.210256 1.203000 107 104 113
0.339469 0.214450 1.227000 45 46 43
0.401982 0.171281 0.980000 116 115 112
0.699372 0.220568 1.262000 45 40 35
0.324588 0.074804 0.428000 42 39 29
-0.729951 0.196021 1.105000 133 139 132
-0.589542 0.197440 1.113000 132 138 137
-0.447836 0.199214 1.123000 124 132 134
-0.303245 0.200810 1.132000 138 135 144
-0.157667 0.204181 1.151000 136 139 142
-0.007157 0.208793 1.177000 133 132 136
0.148911 0.211631 1.193000 117 115 121
0.308656 0.214115 1.207000 62 67 63
0.379278 0.174024 0.981000 117 115 115
0.666332 0.223872 1.262000 40 40 29
0.325526 0.078586 0.443000 22 26 15
-0.755987 0.198914 1.105000 127 135 128
-0.614660 0.199994 1.111000 132 137 133
-0.471763 0.201074 1.117000 116 123 127
-0.328460 0.202874 1.127000 139 139 140
-0.183342 0.205574 1.142000 119 122 125
-0.034505 0.209534 1.164000 138 135 144
0.119890 0.213135 1.184000 136 135 139
0.278127 0.215655 1.198000 81 85 90
0.371194 0.176412 0.980000 115 116 113
0.501516 0.177132 0.984000 39 36 26
0.323936 0.079925 0.444000 24 23 15
-0.754619 0.201441 1.103000 131 139 132
-0.612447 0.202172 1.107000 136 137 134
-0.469229 0.202902 1.111000 129 137 139
-0.327877 0.205459 1.125000 135 139 139
-0.182700 0.207833 1.138000 117 122 125
-0.034357 0.211669 1.159000 137 134 143
0.119687 0.215869 1.182000 134 138 138
0.277663 0.218426 1.196000 81 85 90
0.366063 0.178978 0.980000 119 116 113
0.495860 0.179526 0.983000 42 38 26
0.322587 0.080175 0.439000 22 25 12
-0.739026 0.203217 1.097000 132 132 132
-0.598684 0.204329 1.103000 133 134 131
-0.457594 0.205811 1.111000 128 127 131
-0.314972 0.207663 1.121000 135 140 143
-0.170483 0.210442 1.136000 130 133 136
-0.022220 0.214703 1.159000 138 136 142
0.131283 0.217667 1.175000 132 131 135
0.290188 0.221557 1.196000 79 87 89
0.373760 0.181543 0.980000 122 120 114
0.503580 0.182099 0.983000 39 36 26
0.323352 0.078175 0.422000 88 89 81
-0.693722 0.204586 1.089000 126 126 126
-0.556231 0.206465 1.099000 128 134 133
-0.414622 0.207592 1.105000 138 143 146
-0.273396 0.210222 1.119000 134 136 141
-0.129299 0.214168 1.140000 113 118 121
0.020226 0.217361 1.157000 133 130 134
0.174646 0.221119 1.177000 107 111 111
0.320898 0.215858 1.149000 76 82 82
0.408038 0.182230 0.970000 117 116 113
0.317851 0.088861 0.473000 29 29 18
0.325974 0.076274 0.406000 121 122 114
-0.654850 0.206866 1.086000 134 139 135
-0.516939 0.208580 1.095000 126 135 133
-0.377696 0.210866 1.107000 137 144 148
-0.234891 0.212771 1.117000 136 138 143
-0.090500 0.217152 1.140000 124 129 132
0.059604 0.220390 1.157000 133 132 136
0.215070 0.224581 1.179000 105 109 109
0.308326 0.182865 0.960000 101 100 92
0.433991 0.182865 0.960000 117 116 113
0.319559 0.086861 0.456000 21 23 12
0.331012 0.075813 0.398000 120 127 118
-0.618457 0.209902 1.087000 129 133 132
-0.479672 0.211447 1.095000 133 137 137
-0.340635 0.214151 1.109000 134 136 141
-0.196875 0.215695 1.117000 143 138 142
-0.051701 0.220137 1.140000 138 136 142
0.099152 0.223806 1.159000 123 121 122
0.255196 0.227668 1.179000 94 94 95
0.347037 0.188661 0.977000 112 110 110
0.471525 0.187309 0.970000 43 42 34
0.318829 0.084386 0.437000 21 23 12
-0.724746 0.211378 1.080000 133 138 134
-0.588234 0.213140 1.089000 129 133 133
-0.448137 0.214314 1.095000 133 139 138
-0.308140 0.216663 1.107000 130 136 143
-0.165297 0.219403 1.121000 118 117 121
-0.018937 0.223904 1.144000 130 129 133
0.132530 0.226840 1.159000 114 110 116
0.290376 0.231733 1.184000 84 89 92
0.380051 0.192393 0.983000 115 110 105
0.505622 0.191219 0.977000 38 36 24
0.320106 0.083768 0.428000 28 28 17
-0.705160 0.213412 1.076000 130 138 131
-0.569554 0.215396 1.086000 126 130 130
-0.427395 0.215396 1.086000 141 145 150
-0.289701 0.218767 1.103000 130 135 138
-0.147951 0.222734 1.123000 132 131 135
-0.000962 0.225709 1.138000 131 130 134
0.150215 0.229081 1.155000 109 108 112
0.286271 0.217577 1.097000 84 89 92
0.395492 0.194967 0.983000 116 115 112
0.301605 0.097781 0.493000 45 40 30
0.319351 0.085286 0.430000 25 27 16
-0.699732 0.215425 1.072000 133 139 132
-0.564624 0.217435 1.082000 126 132 131
-0.422988 0.217435 1.082000 135 139 139
-0.285253 0.220449 1.097000 128 134 134
-0.144753 0.225272 1.121000 127 130 133
0.002011 0.227885 1.134000 129 129 130
0.152974 0.231703 1.153000 112 111 115
0.270580 0.196535 0.978000 82 90 92
0.399824 0.197138 0.981000 110 109 106
0.302281 0.098871 0.492000 44 38 26
0.318986 0.086009 0.428000 26 28 17
-0.712433 0.217825 1.070000 128 135 126
-0.576647 0.219453 1.078000 127 132 128
-0.436344 0.219861 1.080000 141 144 147
-0.299067 0.222914 1.095000 116 120 120
-0.158289 0.226578 1.113000 125 129 134
-0.012777 0.229836 1.129000 123 123 124
0.137044 0.233296 1.146000 109 112 115
0.278791 0.226578 1.113000 90 93 101
0.391536 0.200725 0.986000 112 112 106
0.298145 0.101380 0.498000 40 38 26
0.317044 0.088148 0.433000 20 22 16
-0.734586 0.223100 1.082000 132 140 133
-0.588567 0.221451 1.074000 129 129 129
-0.448813 0.221863 1.076000 131 131 131
-0.311683 0.224544 1.089000 134 137 140
-0.171927 0.228255 1.107000 127 132 135
-0.027409 0.231554 1.123000 133 131 137
0.121403 0.235060 1.140000 103 108 111
0.274667 0.238565 1.157000 85 91 91
0.379781 0.203924 0.989000 107 104 101
0.501519 0.200832 0.974000 38 38 27
0.314106 0.090725 0.440000 20 21 13
-0.792066 0.237209 1.136000 131 134 126
-0.598698 0.222801 1.067000 130 134 134
-0.461177 0.223845 1.072000 130 130 130
-0.324442 0.226351 1.084000 142 141 145
-0.185407 0.229901 1.101000 118 116 117
-0.041810 0.232824 1.115000 129 128 132
0.105920 0.236791 1.134000 114 118 118
0.261540 0.243473 1.166000 90 94 94
0.364981 0.205470 0.984000 105 105 105
0.490275 0.204008 0.977000 107 107 101
0.310911 0.093338 0.447000 20 22 16
0.330581 0.083524 0.400000 121 120 117
-0.616389 0.223903 1.059000 125 125 126
-0.480471 0.225172 1.065000 130 135 131
-0.344583 0.227497 1.076000 123 127 132
-0.206952 0.231092 1.093000 137 135 141
-0.064578 0.233629 1.105000 133 136 139
0.081662 0.238280 1.127000 130 128 129
0.236306 0.245680 1.162000 105 102 106
0.339472 0.205086 0.970000 113 111 111
0.459233 0.201914 0.955000 110 110 104
0.306830 0.097680 0.462000 37 33 21
0.325170 0.086474 0.409000 104 107 94
-0.639524 0.226033 1.056000 133 138 134
-0.502716 0.226675 1.059000 132 137 133
-0.367186 0.228602 1.068000 135 139 139
-0.231215 0.232455 1.086000 135 134 138
-0.090286 0.235665 1.101000 129 132 135
0.054814 0.239946 1.121000 133 135 140
0.207308 0.246796 1.153000 102 105 108
0.315208 0.205057 0.958000 106 105 102
0.431873 0.200990 0.939000 109 109 103
0.301710 0.100816 0.471000 76 66 42
0.320933 0.089043 0.416000 64 63 55
-0.645364 0.227931 1.052000 127 132 128
-0.509586 0.228798 1.056000 127 132 128
-0.373816 0.230315 1.063000 140 139 143
-0.238420 0.233998 1.080000 137 135 141
-0.098395 0.237248 1.095000 124 128 133
0.045763 0.241581 1.115000 130 132 137
0.197049 0.248298 1.146000 119 123 123
0.307684 0.207565 0.958000 96 102 101
0.424498 0.203448 0.939000 105 105 99
0.300514 0.102482 0.473000 77 65 43
0.320287 0.090566 0.418000 51 47 47
-0.646886 0.230247 1.050000 126 130 129
-0.510410 0.230685 1.052000 127 131 130
-0.375182 0.232220 1.059000 136 140 140
-0.240354 0.235948 1.076000 131 126 135
-0.101076 0.239676 1.093000 129 131 136
0.042691 0.243623 1.111000 130 132 137
0.193033 0.249982 1.140000 109 112 115
0.307724 0.211827 0.966000 99 105 104
0.448050 0.206564 0.942000 112 112 106
0.303093 0.100870 0.460000 38 32 25
0.323818 0.089906 0.410000 81 76 66
-0.604499 0.232552 1.048000 133 138 134
-0.468206 0.232996 1.050000 132 133 130
-0.334224 0.235437 1.061000 132 136 141
-0.198468 0.239209 1.078000 124 119 128
-0.057941 0.241650 1.089000 136 138 143
0.086631 0.247419 1.115000 112 108 109
0.214021 0.227670 1.026000 100 99 103
0.389754 0.228336 1.029000 100 101 93
0.494381 0.215244 0.970000 106 106 100
0.307434 0.098080 0.442000 23 20 17
0.331408 0.088982 0.401000 100 102 91
-0.566087 0.235296 1.048000 125 134 132
-0.431358 0.236643 1.054000 128 128 128
-0.295336 0.238214 1.061000 125 127 132
-0.159546 0.242929 1.082000 116 117 125
-0.018126 0.245848 1.095000 128 130 135
0.127956 0.251237 1.119000 115 114 118
0.240123 0.210823 0.939000 86 89 92
0.409089 0.222498 0.991000 104 102 96
0.294713 0.109565 0.488000 89 77 55
0.313769 0.095870 0.427000 19 21 10
-0.639843 0.236904 1.043000 128 129 126
-0.502348 0.236449 1.041000 127 131 131
-0.368541 0.238039 1.048000 132 137 140
-0.235109 0.241901 1.065000 126 127 135
-0.097226 0.245762 1.082000 132 130 136
0.045025 0.249169 1.097000 132 128 134
0.190687 0.251895 1.109000 111 111 112
0.321939 0.231452 1.019000 104 104 104
0.430742 0.210329 0.926000 107 106 103
0.300132 0.104710 0.461000 37 26 20
0.322162 0.093580 0.412000 48 49 41
-0.578102 0.238945 1.040000 133 133 133
-0.443240 0.239634 1.043000 130 130 130
-0.309944 0.242162 1.054000 126 130 130
-0.174911 0.246297 1.072000 131 130 134
-0.034907 0.248595 1.082000 139 135 141
0.109392 0.254798 1.109000 112 112 113
0.228317 0.216199 0.941000 89 88 92
0.395910 0.236877 1.031000 109 110 102
0.285679 0.114648 0.499000 90 83 58
0.307388 0.100403 0.437000 21 22 14
0.333723 0.091902 0.400000 108 99 94
-0.522640 0.241203 1.038000 123 128 124
-0.388628 0.242365 1.043000 126 125 122
-0.254756 0.244921 1.054000 120 115 119
-0.119223 0.250033 1.076000 127 130 133
0.021848 0.252589 1.087000 123 121 127
0.161571 0.248639 1.070000 112 117 120
0.297057 0.234000 1.007000 92 96 96
0.413675 0.220290 0.948000 105 105 99
0.295567 0.110377 0.475000 50 39 26
0.317075 0.097829 0.421000 19 23 12
-0.593539 0.241806 1.029000 136 138 132
-0.459734 0.242276 1.031000 130 134 133
-0.329184 0.245566 1.045000 123 121 122
-0.195706 0.249795 1.063000 132 134 139
-0.056770 0.250735 1.067000 120 112 117
0.085232 0.257785 1.097000 116 113 117
0.209273 0.221831 0.944000 91 95 95
0.400406 0.262955 1.119000 107 105 105
0.458426 0.220421 0.938000 104 100 100
0.302899 0.105511 0.449000 27 25 19
0.326231 0.095171 0.405000 65 61 61
-0.533234 0.244024 1.027000 130 130 130
-0.401516 0.245688 1.034000 124 124 124
-0.268996 0.248301 1.045000 128 132 132
-0.134987 0.253529 1.067000 125 121 127
0.004734 0.256142 1.078000 131 129 135
0.137593 0.241648 1.017000 111 109 110
0.278050 0.238797 1.005000 92 95 98
0.416031 0.234995 0.989000 102 103 100
0.292233 0.115478 0.486000 59 47 30
0.312651 0.101459 0.427000 18 20 14
-0.606446 0.244791 1.019000 127 133 132
-0.473521 0.245032 1.020000 126 126 126
-0.344335 0.248154 1.033000 140 144 144
-0.212960 0.252719 1.052000 120 124 124
-0.076038 0.255361 1.063000 132 130 136
0.064000 0.258965 1.078000 116 109 111
0.227900 0.230618 0.960000 92 96 96
0.397830 0.248875 1.036000 105 104 101
0.284201 0.120354 0.501000 81 70 50
0.305798 0.105219 0.438000 36 41 28
0.331628 0.096091 0.400000 80 76 69
-0.506557 0.248188 1.022000 124 125 122
-0.374235 0.249159 1.026000 120 126 126
-0.243204 0.252559 1.040000 128 132 132
-0.109022 0.257173 1.059000 128 133 136
0.029910 0.259844 1.070000 127 129 134
0.183581 0.228031 0.939000 107 105 106
0.369361 0.268344 1.105000 110 110 104
0.427553 0.221960 0.914000 99 100 92
0.296979 0.111223 0.458000 25 20 10
0.321083 0.100052 0.412000 26 25 17
-0.549291 0.248409 1.012000 131 131 131
-0.418878 0.249636 1.017000 127 131 131
-0.289123 0.252581 1.029000 125 126 123
-0.157877 0.258227 1.052000 130 130 131
-0.020379 0.260927 1.063000 123 127 132
0.122123 0.230490 0.939000 103 101 107
0.285002 0.257736 1.050000 86 86 87
0.411183 0.250863 1.022000 100 100 94
0.287407 0.121013 0.493000 51 44 26
0.308395 0.106040 0.432000 24 25 12
-0.610228 0.251058 1.012000 127 132 128
-0.477756 0.251058 1.012000 126 130 129
-0.347672 0.252795 1.019000 119 123 123
-0.218699 0.258004 1.040000 132 137 140
-0.083514 0.260981 1.052000 118 116 117
0.054864 0.264206 1.065000 120 118 118
0.189903 0.234685 0.946000 104 108 108
0.368023 0.273137 1.101000 100 98 92
0.425214 0.225506 0.909000 103 104 96
0.296763 0.112629 0.454000 23 20 10
0.321671 0.101713 0.410000 27 22 12
-0.536032 0.252454 1.007000 134 132 132
-0.406221 0.253708 1.012000 133 133 133
-0.275912 0.255713 1.020000 116 115 119
-0.146162 0.262482 1.047000 130 127 136
-0.009186 0.264738 1.056000 103 109 109
0.138166 0.229390 0.915000 108 108 108
0.314675 0.272259 1.086000 88 92 92
0.419890 0.248694 0.992000 106 103 100
0.289226 0.120586 0.481000 32 25 15
0.312299 0.106547 0.425000 22 22 16
-0.581748 0.254330 1.004000 130 131 128
-0.451668 0.255090 1.007000 128 129 126
-0.323026 0.257624 1.017000 123 123 124
-0.193074 0.261930 1.034000 136 130 136
-0.058112 0.263703 1.041000 126 130 130
0.079357 0.267756 1.057000 112 112 113
0.232755 0.256864 1.014000 94 94 95
0.393964 0.276876 1.093000 105 103 97
0.279201 0.130712 0.516000 76 65 52
0.298363 0.112473 0.444000 23 20 17
0.324368 0.102340 0.404000 27 24 21
-0.507137 0.256447 1.002000 127 126 123
-0.378601 0.258239 1.009000 122 122 122
-0.248964 0.260798 1.019000 118 118 119
-0.117957 0.266173 1.040000 113 114 122
0.018425 0.269756 1.054000 120 116 116
0.149362 0.236740 0.925000 109 109 110
0.315764 0.276410 1.080000 94 94 94
0.425392 0.257215 1.005000 101 101 101
0.288070 0.122081 0.477000 22 20 8
0.311564 0.108517 0.424000 26 26 20
-0.577389 0.258812 1.001000 132 132 126
-0.446802 0.259070 1.002000 120 126 125
-0.318159 0.261139 1.010000 120 118 119
-0.189078 0.265534 1.027000 130 133 136
-0.055015 0.267344 1.034000 120 124 124
0.080104 0.266568 1.031000 115 115 116
0.217469 0.262949 1.017000 98 103 99
0.374727 0.281047 1.087000 103 97 95
0.433299 0.234249 0.906000 102 91 78
0.295983 0.116608 0.451000 15 14 11
0.321170 0.105490 0.408000 18 22 11
-0.524961 0.260127 0.996000 128 129 126
-0.396960 0.261694 1.002000 119 124 120
-0.267654 0.263522 1.009000 128 132 132
-0.138933 0.270051 1.034000 123 122 126
-0.003602 0.271618 1.040000 128 131 134
0.115842 0.237405 0.909000 107 105 105
0.275649 0.278670 1.067000 93 97 96
0.411428 0.276058 1.057000 102 102 96
0.282385 0.128235 0.491000 25 21 14
0.305708 0.113087 0.433000 54 52 46
0.330585 0.103163 0.395000 37 33 26
-0.472810 0.262734 0.996000 124 125 122
-0.344495 0.264317 1.002000 115 119 118
-0.216099 0.267746 1.015000 116 112 118
-0.084218 0.270912 1.027000 122 122 123
0.051000 0.275132 1.043000 116 114 114
0.177282 0.260096 0.986000 111 109 109
0.334314 0.283837 1.076000 97 95 95
0.406758 0.238729 0.905000 104 100 86
0.290476 0.121607 0.461000 18 19 11
0.316577 0.109736 0.416000 18 21 8
-0.537892 0.264010 0.991000 123 128 124
-0.408581 0.264276 0.992000 123 123 123
-0.281536 0.266940 1.002000 124 122 122
-0.153975 0.273334 1.026000 123 126 129
-0.019689 0.273600 1.027000 125 128 131
0.102904 0.245361 0.921000 111 111 112
0.256462 0.281593 1.057000 104 104 105
0.401922 0.286654 1.076000 106 106 100
0.280068 0.134003 0.503000 28 21 22
0.301899 0.116953 0.439000 20 20 14
0.324984 0.105764 0.397000 21 22 14
-0.477255 0.266066 0.989000 129 129 129
-0.350255 0.267949 0.996000 110 117 113
-0.222305 0.270909 1.007000 141 144 147
-0.091655 0.274406 1.020000 123 127 127
0.042439 0.278172 1.034000 119 116 113
0.181957 0.272254 1.012000 102 103 100
0.331828 0.287319 1.068000 93 91 91
0.407859 0.241316 0.897000 99 90 77
0.289846 0.123752 0.460000 15 18 10
0.316577 0.111915 0.416000 20 23 10
-0.530977 0.267025 0.983000 128 134 127
-0.403528 0.267840 0.986000 126 122 122
-0.277243 0.270557 0.996000 119 117 117
-0.150256 0.276805 1.019000 121 124 127
-0.016884 0.277076 1.020000 127 125 126
0.105429 0.250455 0.922000 109 109 109
0.264513 0.286855 1.056000 100 99 103
0.407322 0.290115 1.068000 100 99 96
0.278206 0.134463 0.495000 24 18 16
0.302812 0.118708 0.437000 20 21 18
0.326239 0.107571 0.396000 27 20 15
-0.469212 0.269599 0.983000 126 127 124
-0.342614 0.271245 0.989000 116 121 117
-0.216386 0.275358 1.004000 135 132 136
-0.085807 0.278101 1.014000 128 131 134
0.047390 0.280844 1.024000 119 115 116
0.181965 0.281666 1.027000 113 112 109
0.326259 0.290443 1.059000 91 91 91
0.412898 0.256434 0.935000 97 86 73
0.286910 0.127532 0.465000 15 18 10
0.314123 0.115190 0.420000 29 32 17
-0.543639 0.270788 0.978000 130 131 128
-0.415617 0.270788 0.978000 119 120 117
-0.290830 0.273834 0.989000 117 117 118
-0.164631 0.279371 1.009000 122 121 125
-0.032810 0.281586 1.017000 131 128 132
0.092623 0.259990 0.939000 117 115 115
0.240560 0.290170 1.048000 102 101 98
0.383151 0.294323 1.063000 94 92 86
0.274081 0.140932 0.509000 26 25 17
0.297870 0.123211 0.445000 16 19 11
0.321710 0.111306 0.402000 25 20 10
-0.485862 0.271113 0.970000 122 127 123
-0.362588 0.273908 0.980000 112 114 108
-0.238369 0.278659 0.997000 137 137 138
-0.109158 0.282013 1.009000 128 125 129
0.023149 0.284808 1.019000 117 114 118
0.155462 0.282851 1.012000 109 109 109
0.298746 0.293472 1.050000 89 95 94
0.436193 0.293472 1.050000 103 95 79
0.281888 0.132761 0.475000 19 20 7
0.307124 0.118507 0.424000 31 36 23
-0.562710 0.276473 0.980000 127 131 130
-0.429994 0.273652 0.970000 125 127 121
-0.306455 0.276755 0.981000 116 120 119
-0.181308 0.281833 0.999000 130 134 134
-0.050942 0.284090 1.007000 128 127 131
0.076619 0.269138 0.954000 106 104 105
0.219664 0.293400 1.040000 107 107 107
0.359907 0.296785 1.052000 94 96 90
0.267043 0.145572 0.516000 30 25 15
0.291792 0.126952 0.450000 12 15 7
0.318745 0.115385 0.409000 10 16 9
-0.497483 0.274198 0.963000 123 124 121
-0.373739 0.275907 0.969000 119 117 117
-0.252756 0.282456 0.992000 118 122 121
-0.124140 0.285303 1.002000 115 117 122
0.007079 0.287581 1.010000 121 116 120
0.135566 0.279893 0.983000 105 103 103
0.279833 0.296408 1.041000 102 102 102
0.420499 0.299540 1.052000 103 97 85
0.279245 0.136387 0.479000 17 17 11
0.304826 0.121581 0.427000 54 50 38
-0.537524 0.277869 0.967000 122 128 121
-0.409667 0.277007 0.964000 117 117 117
-0.287301 0.280742 0.977000 112 112 112
-0.162510 0.286202 0.996000 124 124 125
-0.032390 0.288501 1.004000 124 124 125
0.092623 0.269823 0.939000 111 109 109
0.237346 0.297122 1.034000 98 98 98
0.377384 0.300857 1.047000 88 89 81
0.273484 0.144538 0.503000 21 20 12
0.298851 0.127297 0.443000 17 19 8
0.322203 0.114941 0.400000 18 21 13
-0.443615 0.278661 0.961000 123 125 119
-0.319803 0.280401 0.967000 120 118 118
-0.196618 0.285330 0.984000 121 127 127
-0.068500 0.288230 0.994000 129 129 130
0.061244 0.286490 0.988000 115 115 116
0.196747 0.295769 1.020000 112 110 110
0.336095 0.300988 1.038000 93 90 94
0.266048 0.151364 0.522000 29 25 18
0.290179 0.131356 0.453000 13 15 9
0.318152 0.119177 0.411000 15 17 6
-0.469329 0.280006 0.957000 120 126 125
-0.346213 0.281762 0.963000 116 116 116
-0.224727 0.287614 0.983000 131 131 131
-0.097126 0.290832 0.994000 121 125 125
0.033223 0.292880 1.001000 123 123 123
0.166060 0.296099 1.012000 109 107 108
0.304137 0.301658 1.031000 90 90 90
0.438245 0.301073 1.029000 76 67 54
0.282648 0.135761 0.464000 15 18 5
0.310824 0.122887 0.420000 31 34 19
-0.494293 0.281036 0.952000 129 130 127
-0.372004 0.282807 0.958000 117 118 115
-0.251749 0.288711 0.978000 118 117 114
-0.124992 0.291663 0.988000 116 120 125
0.004365 0.293434 0.994000 116 114 115
0.131504 0.286940 0.972000 104 104 104
0.272583 0.302291 1.024000 93 90 87
0.413377 0.307309 1.041000 91 83 67
0.276737 0.141404 0.479000 15 17 11
0.304007 0.126643 0.429000 28 29 21
0.332459 0.116901 0.396000 14 21 17
-0.400422 0.284124 0.954000 121 120 117
-0.278431 0.287102 0.964000 116 120 119
-0.154926 0.292165 0.981000 130 131 139
-0.026728 0.294548 0.989000 121 125 125
0.097228 0.278763 0.936000 105 105 105
0.238769 0.302887 1.017000 97 101 101
0.376284 0.306461 1.029000 105 92 77
0.272470 0.147125 0.494000 21 20 12
0.300283 0.131042 0.440000 17 18 15
0.324532 0.118832 0.399000 20 21 8
-0.417030 0.286021 0.952000 117 118 115
-0.294869 0.288424 0.960000 109 113 118
-0.171847 0.292931 0.975000 107 113 112
-0.044490 0.294733 0.981000 128 126 132
0.080930 0.284218 0.946000 109 113 113
0.218400 0.303146 1.009000 102 101 105
0.354995 0.307051 1.022000 108 99 86
0.269022 0.152324 0.507000 21 23 12
0.294375 0.133697 0.445000 15 16 8
0.320137 0.121378 0.404000 8 18 6
-0.432651 0.287301 0.948000 116 116 116
-0.310834 0.289422 0.955000 112 116 115
-0.188158 0.293059 0.967000 133 137 136
-0.062086 0.295483 0.975000 110 108 109
0.065745 0.296392 0.978000 99 102 105
0.198918 0.304272 1.004000 104 102 102
0.335278 0.308818 1.019000 100 96 89
0.266342 0.160016 0.528000 23 23 12
0.287807 0.137286 0.453000 14 17 2
0.315690 0.124861 0.412000 37 37 26
-0.454574 0.287948 0.942000 124 126 120
-0.335485 0.291617 0.954000 111 111 111
-0.212150 0.293756 0.961000 120 125 121
-0.087342 0.297119 0.972000 126 127 124
0.040264 0.299870 0.981000 112 108 108
0.171773 0.305372 0.999000 109 108 105
0.305875 0.308735 1.010000 97 91 89
0.438953 0.309346 1.012000 40 35 25
0.282039 0.141529 0.463000 18 20 9
0.310824 0.128385 0.420000 26 35 26
-0.478727 0.290106 0.941000 121 122 119
-0.358572 0.292573 0.949000 112 112 112
-0.237309 0.296272 0.961000 121 124 127
-0.112093 0.297814 0.966000 122 125 128
0.014521 0.301205 0.977000 117 115 116
0.144453 0.305521 0.991000 104 108 108
0.278050 0.309837 1.005000 99 104 100
0.415312 0.314153 1.019000 47 41 34
0.276914 0.146441 0.475000 16 19 11
0.304826 0.131642 0.427000 30 29 21
-0.498965 0.292881 0.942000 123 123 117
-0.376853 0.293814 0.945000 128 126 127
-0.255829 0.296923 0.955000 109 109 110
-0.132051 0.299721 0.964000 125 131 130
-0.005893 0.301276 0.969000 118 116 117
0.119079 0.296612 0.954000 117 117 118
0.255978 0.311225 1.001000 101 101 101
0.392423 0.315578 1.015000 67 53 41
0.272585 0.150793 0.485000 21 16 11
0.300733 0.134937 0.434000 18 21 8
0.328710 0.124055 0.399000 18 18 12
-0.393707 0.294093 0.938000 118 116 116
-0.274965 0.298482 0.952000 120 119 116
-0.152084 0.301931 0.963000 113 111 112
-0.026052 0.302245 0.964000 110 107 111
0.098267 0.296601 0.946000 106 104 104
0.233839 0.312278 0.996000 105 104 101
0.368239 0.315727 1.007000 79 68 55
0.268920 0.155825 0.497000 22 23 15
0.296347 0.138268 0.441000 17 20 12
0.322762 0.126040 0.402000 21 22 9
-0.408268 0.294652 0.932000 111 117 110
-0.290568 0.299078 0.946000 116 120 120
-0.168322 0.301923 0.955000 135 139 138
-0.043538 0.303504 0.960000 113 118 121
0.081615 0.301607 0.954000 124 122 122
0.214071 0.312672 0.989000 102 101 98
0.348742 0.317415 1.004000 87 77 68
0.267131 0.161553 0.511000 26 23 13
0.292187 0.141319 0.447000 13 15 9
0.319318 0.128673 0.407000 28 37 23
-0.419115 0.296135 0.929000 119 124 120
-0.302311 0.300917 0.944000 113 119 119
-0.180255 0.303467 0.952000 118 118 118
-0.055929 0.305061 0.957000 125 128 131
0.069851 0.307292 0.964000 112 110 110
0.199904 0.313349 0.983000 105 103 103
0.333929 0.318449 0.999000 86 80 68
0.265539 0.166078 0.521000 26 22 22
0.288898 0.143764 0.451000 10 16 9
0.317076 0.131014 0.411000 40 45 32
-0.431841 0.297282 0.925000 118 123 119
-0.315460 0.301781 0.939000 115 116 113
-0.193979 0.304031 0.946000 117 115 115
-0.070591 0.305959 0.952000 126 122 123
0.054538 0.308852 0.961000 116 114 115
0.184088 0.315280 0.981000 102 102 96
0.316643 0.319458 0.994000 92 86 74
0.262579 0.169049 0.526000 27 26 18
0.286696 0.146231 0.455000 21 21 10
0.314294 0.132732 0.413000 36 39 26
-0.439141 0.298084 0.920000 114 119 115
-0.322868 0.301972 0.932000 131 132 129
-0.203454 0.305860 0.944000 118 117 114
-0.080476 0.308128 0.951000 132 135 138
0.044197 0.309424 0.955000 107 105 105
0.173106 0.316552 0.977000 102 98 98
0.304386 0.320116 0.988000 93 87 75
0.440740 0.325300 1.004000 26 23 13
0.283825 0.149042 0.460000 56 67 51
0.311131 0.134786 0.416000 36 39 26
-0.447312 0.299512 0.917000 116 123 119
-0.331201 0.303105 0.928000 114 120 119
-0.212210 0.306698 0.939000 118 123 119
-0.090149 0.309638 0.948000 122 122 123
0.034089 0.310944 0.952000 115 115 115
0.162041 0.317477 0.972000 105 105 106
0.292551 0.321069 0.983000 90 84 77
0.428084 0.326295 0.999000 27 27 16
0.280827 0.151226 0.463000 66 71 58
0.309725 0.137181 0.420000 48 50 39
-0.453027 0.300925 0.914000 113 120 116
-0.337030 0.304218 0.924000 123 124 121
-0.218883 0.308169 0.936000 119 119 119
-0.097286 0.311132 0.945000 117 117 118
0.026584 0.313107 0.951000 107 105 106
0.153930 0.319034 0.969000 112 111 115
0.283092 0.321668 0.977000 92 88 74
0.417293 0.326606 0.992000 26 24 18
0.279585 0.153755 0.467000 71 72 57
0.307156 0.138610 0.421000 36 41 28
-0.458695 0.302323 0.911000 114 118 117
-0.343170 0.305641 0.921000 124 122 122
-0.225751 0.309955 0.934000 118 118 118
-0.104376 0.312610 0.942000 121 119 120
0.019054 0.314601 0.948000 120 116 116
0.145565 0.319911 0.964000 98 98 98
0.274573 0.323230 0.974000 89 85 73
0.408263 0.328208 0.989000 28 25 15
0.278327 0.155641 0.469000 78 81 66
0.305676 0.140044 0.422000 23 31 19
-0.462956 0.304373 0.910000 116 120 119
-0.346859 0.307049 0.918000 119 115 115
-0.229901 0.311397 0.931000 121 121 122
-0.108960 0.314073 0.939000 132 132 132
0.014061 0.316414 0.946000 112 108 108
0.139934 0.321097 0.960000 116 116 116
0.268366 0.324442 0.970000 89 83 71
0.401047 0.329124 0.984000 26 25 17
0.277690 0.157204 0.470000 76 77 62
0.304571 0.141149 0.422000 23 27 16
-0.463805 0.305744 0.907000 112 116 115
-0.348120 0.308441 0.915000 117 115 115
-0.231091 0.312149 0.926000 109 110 107
-0.110944 0.315183 0.935000 130 130 131
0.011559 0.318217 0.944000 119 116 113
0.136991 0.322599 0.957000 109 105 105
0.265005 0.325970 0.967000 92 83 72
0.397256 0.330689 0.981000 28 28 17
0.276986 0.159446 0.473000 70 73 60
0.303794 0.142928 0.424000 21 28 19
-0.463293 0.307779 0.906000 109 114 110
-0.347360 0.310157 0.913000 112 113 110
-0.230592 0.313894 0.924000 111 112 109
-0.110588 0.316612 0.932000 132 132 132
0.011523 0.319669 0.941000 121 118 115
0.136562 0.324085 0.954000 104 103 100
0.264182 0.327483 0.964000 86 77 66
0.395636 0.331899 0.977000 28 28 17
0.276986 0.160684 0.473000 73 73 62
0.303794 0.144038 0.424000 21 28 19
-0.464123 0.309124 0.903000 109 114 110
-0.348218 0.311178 0.909000 111 112 109
-0.232254 0.315286 0.921000 118 119 116
-0.112543 0.317682 0.928000 127 126 123
0.009030 0.321106 0.938000 119 116 113
0.133643 0.325556 0.951000 105 107 101
0.261387 0.329664 0.963000 83 74 63
0.391871 0.333430 0.974000 28 28 17
0.277048 0.161238 0.471000 77 77 66
0.304185 0.144806 0.423000 22 28 21
-0.456525 0.311143 0.902000 107 114 110
-0.340328 0.312868 0.907000 115 116 113
-0.224043 0.316318 0.917000 111 115 114
-0.105027 0.319422 0.926000 141 139 133
0.016327 0.322182 0.934000 120 116 116
0.140667 0.327011 0.948000 103 104 101
0.268113 0.331150 0.960000 70 64 57
0.397880 0.334600 0.970000 27 27 16
0.277048 0.162471 0.471000 75 72 62
0.304185 0.145913 0.423000 25 27 21
-0.451802 0.313505 0.902000 113 119 112
-0.335209 0.314895 0.906000 121 122 119
-0.218524 0.317676 0.914000 111 111 111
-0.100071 0.321499 0.925000 128 128 129
0.021104 0.322889 0.929000 110 108 108
0.145323 0.328798 0.946000 103 103 103
0.272286 0.332621 0.957000 60 54 47
0.402959 0.337139 0.970000 29 30 17
0.277690 0.163356 0.470000 74 72 60
0.304571 0.146673 0.422000 27 28 20
-0.444224 0.315516 0.901000 114 121 117
-0.327006 0.316216 0.903000 116 117 114
-0.211115 0.319718 0.913000 102 106 106
-0.092504 0.322870 0.922000 122 126 126
0.028370 0.324971 0.928000 107 103 104
0.152592 0.330924 0.945000 105 105 105
0.278925 0.334076 0.954000 53 49 42
0.410154 0.339329 0.969000 25 28 15
0.278363 0.163536 0.467000 73 71 59
0.306053 0.147428 0.421000 27 28 20
-0.433824 0.317169 0.899000 114 121 117
-0.316847 0.317875 0.901000 107 114 110
-0.201112 0.321403 0.911000 103 103 103
-0.082669 0.324578 0.920000 120 124 124
0.038006 0.326695 0.926000 114 110 111
0.161972 0.332340 0.942000 95 95 95
0.288310 0.335868 0.952000 44 37 32
0.256368 0.190160 0.539000 76 81 68
0.280827 0.163347 0.463000 74 70 58
0.308987 0.147824 0.419000 35 36 23
-0.423465 0.318812 0.897000 115 119 118
-0.307411 0.320234 0.901000 112 113 110
-0.191362 0.323433 0.910000 108 113 109
-0.072559 0.324854 0.914000 109 107 108
0.047600 0.328408 0.924000 109 109 110
0.171107 0.333384 0.938000 94 90 90
0.297966 0.338005 0.951000 39 32 27
0.259582 0.189794 0.534000 79 80 72
0.283208 0.163138 0.459000 48 40 38
0.311879 0.148210 0.417000 44 52 40
-0.408969 0.319012 0.891000 123 124 121
-0.295617 0.322593 0.901000 118 119 116
-0.178858 0.324741 0.907000 117 117 117
-0.060329 0.325815 0.910000 124 117 119
0.059566 0.330111 0.922000 106 104 104
0.183386 0.335840 0.938000 103 103 97
0.308783 0.338704 0.946000 33 28 23
0.262079 0.187970 0.525000 88 92 81
0.286066 0.162549 0.454000 26 20 18
0.315055 0.148228 0.414000 38 49 35
-0.388994 0.320263 0.888000 115 118 110
-0.275825 0.323869 0.898000 125 123 123
-0.159862 0.327115 0.907000 110 110 104
-0.041315 0.328558 0.911000 117 115 115
0.078877 0.332525 0.922000 95 95 95
0.203681 0.339378 0.941000 77 72 67
0.329291 0.341902 0.948000 31 28 18
0.264517 0.182492 0.506000 83 92 78
0.290880 0.160492 0.445000 11 21 9
0.319318 0.146787 0.407000 48 53 40
-0.374200 0.321861 0.886000 112 117 113
-0.262593 0.327310 0.901000 122 123 120
-0.145293 0.328763 0.905000 119 117 117
-0.026946 0.330216 0.909000 125 126 123
0.093563 0.335666 0.924000 103 105 99
0.217766 0.340751 0.938000 66 60 53
0.343456 0.343658 0.946000 28 30 19
0.266083 0.181274 0.499000 84 89 74
0.292883 0.160204 0.441000 18 21 8
0.321990 0.147126 0.405000 55 56 41
-0.362193 0.323815 0.885000 110 111 108
-0.250242 0.328937 0.899000 114 114 114
-0.133152 0.330401 0.903000 112 118 111
-0.015047 0.332596 0.909000 111 111 112
0.105200 0.336621 0.920000 114 112 106
0.229554 0.342475 0.936000 57 56 48
0.355463 0.345768 0.945000 27 29 18
0.267698 0.179287 0.490000 84 86 80
0.296625 0.160261 0.438000 43 48 44
0.324867 0.147089 0.402000 48 49 36
-0.340184 0.325026 0.882000 119 119 113
-0.228550 0.330554 0.897000 120 126 126
-0.111379 0.331291 0.899000 119 118 115
0.006357 0.334239 0.907000 116 112 112
0.126602 0.338293 0.918000 97 98 95
0.251608 0.344926 0.936000 40 38 32
0.377729 0.348242 0.945000 68 72 54
0.274115 0.177254 0.481000 75 76 63
0.300638 0.158091 0.429000 45 45 34
0.330180 0.146299 0.397000 38 46 34
-0.316733 0.326964 0.881000 111 118 114
-0.204609 0.332160 0.895000 114 115 112
-0.087746 0.333273 0.898000 112 113 110
0.030036 0.335871 0.905000 108 109 106
0.150471 0.340325 0.917000 107 105 105
0.274638 0.345521 0.931000 32 28 21
0.253980 0.202636 0.546000 79 81 70
0.279555 0.174059 0.469000 73 75 57
0.306780 0.156616 0.422000 26 30 19
-0.406207 0.327028 0.875000 109 111 105
-0.293001 0.328523 0.879000 120 119 116
-0.180773 0.333756 0.893000 108 109 106
-0.063950 0.334129 0.894000 123 125 119
0.053789 0.338614 0.906000 110 110 110
0.173908 0.341604 0.914000 63 56 51
0.298369 0.347211 0.929000 35 32 22
0.261948 0.195096 0.522000 94 93 85
0.286621 0.169307 0.453000 28 22 15
0.314611 0.153984 0.412000 52 53 38
-0.372853 0.328190 0.872000 114 113 110
-0.263454 0.334212 0.888000 118 117 121
-0.147711 0.335341 0.891000 112 112 112
-0.031287 0.337599 0.897000 115 120 116
0.087092 0.341363 0.907000 107 106 103
0.208997 0.346632 0.921000 50 45 40
0.333493 0.350772 0.932000 58 59 44
0.264777 0.187806 0.499000 86 87 72
0.293713 0.167106 0.444000 16 22 15
0.321722 0.152804 0.406000 52 52 41
-0.346944 0.329715 0.870000 110 111 103
-0.236810 0.335021 0.884000 123 123 123
-0.121778 0.336916 0.889000 98 97 94
-0.005455 0.339947 0.897000 111 111 111
0.113087 0.343358 0.906000 111 111 105
0.235776 0.349422 0.922000 36 35 27
0.361493 0.354349 0.935000 74 84 65
0.271875 0.184186 0.486000 78 81 66
0.298906 0.164099 0.433000 88 93 80
0.328487 0.151593 0.400000 39 43 32
-0.321889 0.331993 0.870000 105 109 109
-0.211352 0.337335 0.884000 112 113 110
-0.096068 0.338861 0.888000 112 113 110
0.020423 0.343059 0.899000 102 100 100
0.139025 0.345349 0.905000 104 103 100
0.261759 0.351073 0.920000 34 34 23
0.250081 0.209880 0.550000 75 78 65
0.278157 0.181260 0.475000 77 80 67
0.304511 0.162180 0.425000 31 36 23
-0.409674 0.331581 0.863000 110 112 106
-0.298768 0.333886 0.869000 120 118 119
-0.187144 0.337728 0.879000 112 112 112
-0.072328 0.338881 0.882000 116 122 121
0.043714 0.343492 0.894000 117 116 113
0.162179 0.346565 0.902000 52 48 49
0.285223 0.352713 0.918000 36 35 27
0.258668 0.205557 0.535000 81 86 73
0.283235 0.177125 0.461000 73 71 59
0.311533 0.160603 0.418000 29 31 25
-0.383929 0.333066 0.861000 106 114 107
-0.273113 0.335387 0.867000 107 111 110
-0.161462 0.339256 0.877000 108 108 108
-0.046874 0.340803 0.881000 119 119 119
0.069693 0.346993 0.897000 107 107 101
0.189198 0.350861 0.907000 39 33 31
0.311321 0.354729 0.917000 79 84 71
0.263118 0.197674 0.511000 87 87 76
0.290614 0.174077 0.450000 20 24 13
0.319228 0.158990 0.411000 47 50 42
-0.354625 0.335321 0.861000 115 116 113
-0.245572 0.340383 0.874000 118 119 116
-0.131464 0.341162 0.876000 105 107 101
-0.016947 0.344278 0.884000 116 117 114
0.099775 0.347783 0.893000 103 102 99
0.220067 0.353235 0.907000 33 31 25
0.343651 0.358298 0.920000 83 89 82
0.270816 0.191222 0.491000 81 82 69
0.298235 0.170192 0.437000 80 89 75
0.326972 0.156561 0.402000 52 52 41
-0.324566 0.336791 0.859000 113 118 114
-0.215826 0.342672 0.874000 121 119 120
-0.101766 0.343848 0.877000 111 110 107
0.013169 0.347376 0.886000 100 104 104
0.130314 0.350513 0.894000 83 79 79
0.251490 0.356394 0.909000 35 36 28
0.373740 0.359531 0.917000 78 85 76
0.276634 0.188587 0.481000 71 74 59
0.302884 0.168199 0.429000 71 82 68
0.333933 0.156437 0.399000 40 43 30
-0.302429 0.339434 0.860000 119 123 122
-0.191840 0.342986 0.869000 109 108 105
-0.078356 0.344170 0.872000 119 123 122
0.036282 0.348907 0.884000 106 110 110
0.153547 0.352459 0.893000 85 78 68
0.274682 0.357985 0.907000 76 85 71
0.256839 0.215501 0.546000 88 91 78
0.281409 0.184715 0.468000 77 73 61
0.308258 0.166165 0.421000 34 34 23
-0.388381 0.338110 0.851000 114 117 109
-0.278286 0.339699 0.855000 113 118 114
-0.168311 0.343672 0.865000 111 112 109
-0.055400 0.345659 0.870000 121 125 125
0.059426 0.351221 0.884000 107 105 105
0.177718 0.356386 0.897000 28 28 22
0.299414 0.361551 0.910000 78 83 79
0.261698 0.209382 0.527000 84 89 74
0.286132 0.181173 0.456000 73 71 59
0.315488 0.165280 0.416000 32 36 25
-0.368763 0.340738 0.852000 109 114 110
-0.258744 0.342737 0.857000 114 114 108
-0.147930 0.345937 0.865000 113 112 109
-0.034941 0.348336 0.871000 108 108 108
0.080073 0.352736 0.882000 100 98 98
0.198189 0.357535 0.894000 29 30 22
0.319093 0.361934 0.905000 79 83 82
0.265563 0.203163 0.508000 83 86 78
0.292187 0.178767 0.447000 63 66 51
0.321671 0.163970 0.410000 47 46 38
-0.338569 0.341761 0.849000 118 116 116
-0.229845 0.345384 0.858000 116 119 111
-0.118490 0.348201 0.865000 124 125 122
-0.005297 0.350617 0.871000 116 114 114
0.109717 0.353837 0.879000 68 61 62
0.228615 0.359875 0.894000 55 65 53
0.349894 0.364303 0.905000 84 86 80
0.272830 0.197247 0.490000 81 79 65
0.299836 0.175510 0.436000 80 85 72
0.329895 0.162226 0.403000 51 50 42
-0.311529 0.343578 0.848000 107 106 103
-0.202889 0.347630 0.858000 115 115 115
-0.091209 0.350061 0.864000 112 114 108
0.022092 0.353302 0.872000 110 108 108
0.137488 0.356543 0.880000 86 81 64
0.256989 0.362621 0.895000 79 83 82
0.255636 0.226486 0.559000 84 88 77
0.279401 0.192452 0.475000 81 77 63
0.306342 0.172599 0.426000 51 48 38
-0.391224 0.341720 0.838000 114 117 109
-0.284216 0.344983 0.846000 111 118 114
-0.175319 0.348653 0.855000 113 118 114
-0.063843 0.351099 0.861000 123 128 124
0.049487 0.355585 0.872000 101 102 99
0.165510 0.359663 0.882000 33 30 20
0.286062 0.366187 0.898000 87 93 86
0.260152 0.220610 0.541000 87 92 79
0.283863 0.189210 0.464000 71 69 57
0.312667 0.171676 0.421000 34 36 25
-0.372366 0.344735 0.840000 111 116 112
-0.263033 0.345556 0.842000 112 117 113
-0.154992 0.350481 0.854000 119 117 118
-0.043556 0.353354 0.861000 96 96 96
0.070034 0.357868 0.872000 96 96 97
0.186081 0.361562 0.881000 27 29 18
0.305853 0.366897 0.894000 84 87 79
0.264853 0.212176 0.517000 85 86 73
0.290722 0.185500 0.452000 60 64 46
0.319700 0.169495 0.413000 54 53 45
-0.343367 0.346521 0.839000 109 115 114
-0.235211 0.348999 0.845000 117 118 115
-0.125926 0.352717 0.854000 116 115 112
-0.014285 0.356434 0.863000 112 113 110
0.099483 0.359325 0.870000 80 77 74
0.216065 0.363868 0.881000 76 78 67
0.334775 0.367585 0.890000 86 88 82
0.271726 0.204443 0.495000 75 78 63
0.298451 0.181314 0.439000 71 71 60
0.329162 0.167685 0.406000 51 55 44
-0.314437 0.348302 0.838000 115 111 111
-0.206696 0.351627 0.846000 123 121 115
-0.096748 0.354537 0.853000 124 125 122
0.015051 0.357862 0.861000 110 110 110
0.129241 0.362018 0.871000 74 63 64
0.246049 0.366175 0.881000 82 83 80
0.255591 0.237743 0.572000 82 87 74
0.279048 0.200752 0.483000 69 70 57
0.304716 0.178723 0.430000 80 88 76
0.339175 0.167917 0.404000 52 54 43
-0.288919 0.348823 0.834000 108 112 111
-0.181902 0.353006 0.844000 112 112 112
-0.072183 0.356770 0.853000 119 120 117
0.039985 0.361371 0.864000 109 109 110
0.154325 0.364298 0.871000 38 37 29
0.272653 0.370154 0.885000 82 83 80
0.258684 0.231294 0.553000 89 90 82
0.282579 0.197415 0.472000 74 71 61
0.310074 0.177758 0.425000 40 41 33
-0.378341 0.348902 0.829000 112 116 115
-0.271126 0.350586 0.833000 119 120 117
-0.163836 0.354374 0.842000 118 118 118
-0.054317 0.359003 0.853000 99 103 102
0.057880 0.362370 0.861000 98 100 94
0.172567 0.366579 0.871000 29 27 21
0.289873 0.370787 0.881000 93 95 89
0.261958 0.225587 0.536000 81 83 72
0.286888 0.194863 0.463000 73 70 60
0.315223 0.176766 0.420000 31 33 22
-0.363149 0.351073 0.829000 100 106 99
-0.255553 0.352343 0.832000 107 110 102
-0.148405 0.356578 0.842000 117 116 113
-0.038503 0.359542 0.849000 114 118 117
0.073573 0.364201 0.860000 105 106 103
0.188529 0.368859 0.871000 30 29 21
0.305323 0.372247 0.879000 93 95 89
0.264682 0.221061 0.522000 78 81 68
0.290907 0.193111 0.456000 65 66 51
0.319844 0.176171 0.416000 30 34 23
-0.344952 0.352391 0.827000 95 93 93
-0.238127 0.354521 0.832000 118 123 119
-0.130459 0.357930 0.840000 112 112 112
-0.020722 0.361765 0.849000 116 116 116
0.091692 0.366878 0.861000 94 96 90
0.206534 0.370713 0.870000 90 88 88
0.322997 0.373696 0.877000 87 90 82
0.268751 0.216889 0.509000 79 80 65
0.295846 0.191322 0.449000 59 60 45
0.325398 0.175556 0.412000 51 51 40
-0.326442 0.353270 0.824000 114 120 113
-0.220701 0.356699 0.832000 114 118 117
-0.112732 0.359700 0.839000 110 110 111
-0.002930 0.362702 0.846000 111 111 105
0.109597 0.368704 0.860000 39 39 33
0.223981 0.371705 0.867000 81 88 84
0.340976 0.375563 0.876000 88 89 81
0.273574 0.212648 0.496000 78 82 64
0.300965 0.189068 0.441000 68 69 56
0.332665 0.175349 0.409000 48 51 43
-0.306282 0.354564 0.822000 111 112 109
-0.200856 0.358446 0.831000 112 116 115
-0.092852 0.361466 0.838000 116 116 116
0.017004 0.364916 0.846000 98 98 92
0.129861 0.370955 0.860000 34 35 27
0.244127 0.373543 0.866000 85 91 84
0.256759 0.249316 0.578000 81 84 76
0.278359 0.208770 0.484000 72 73 58
0.305708 0.186772 0.433000 72 76 65
0.340628 0.175557 0.407000 65 72 83
-0.285108 0.357150 0.823000 99 105 98
-0.178885 0.360188 0.830000 116 121 117
-0.070913 0.363660 0.838000 112 116 115
0.039199 0.367565 0.847000 100 99 96
0.152021 0.372339 0.858000 28 27 19
0.267724 0.377112 0.869000 91 90 87
0.258684 0.239981 0.553000 81 89 77
0.283178 0.205264 0.473000 73 75 57
0.312263 0.185735 0.428000 62 64 58
-0.371179 0.357122 0.818000 107 110 102
-0.266039 0.359741 0.824000 111 113 102
-0.159328 0.362361 0.830000 108 108 108
-0.051290 0.366727 0.840000 107 115 108
0.059086 0.369346 0.846000 110 108 108
0.172037 0.374148 0.857000 29 27 21
0.287204 0.378078 0.866000 88 90 84
0.263852 0.234443 0.537000 82 85 72
0.288722 0.202573 0.464000 66 67 54
0.317828 0.184236 0.422000 29 30 27
-0.351905 0.359263 0.818000 109 118 109
-0.246324 0.361459 0.823000 116 115 112
-0.139603 0.364095 0.829000 116 116 110
-0.031348 0.367169 0.836000 113 118 114
0.079207 0.372439 0.848000 112 110 111
0.192454 0.376831 0.858000 36 35 32
0.307965 0.380784 0.867000 85 85 79
0.267560 0.227065 0.517000 85 86 73
0.294386 0.199396 0.454000 70 71 58
0.324201 0.182706 0.416000 36 38 32
-0.326341 0.359196 0.813000 112 119 110
-0.222082 0.362730 0.821000 111 113 107
-0.115589 0.365823 0.828000 119 120 112
-0.007272 0.369358 0.836000 110 110 104
0.103505 0.374218 0.847000 42 39 36
0.216151 0.377310 0.854000 86 87 79
0.332549 0.382612 0.866000 96 97 89
0.273484 0.222233 0.503000 83 83 72
0.300200 0.196608 0.445000 59 63 52
0.331870 0.182028 0.412000 45 52 43
-0.306429 0.360436 0.811000 118 118 118
-0.202244 0.363991 0.819000 113 113 107
-0.095964 0.367546 0.827000 118 125 121
0.012381 0.370213 0.833000 91 99 92
0.123463 0.376435 0.847000 33 33 27
0.235996 0.379102 0.853000 87 87 87
0.256571 0.258216 0.581000 88 91 83
0.279382 0.216884 0.488000 75 73 61
0.307388 0.194217 0.437000 55 59 48
0.341231 0.181773 0.409000 75 92 93
-0.283074 0.362559 0.811000 107 114 105
-0.178876 0.366582 0.820000 111 114 106
-0.072148 0.369712 0.827000 111 115 114
0.036370 0.372394 0.833000 104 105 102
0.147680 0.378206 0.846000 24 23 15
0.261783 0.383123 0.857000 91 98 89
0.260087 0.248561 0.556000 83 86 73
0.284375 0.212349 0.475000 74 71 54
0.314451 0.192679 0.431000 65 65 54
-0.365280 0.361984 0.805000 118 119 111
-0.262488 0.365581 0.813000 104 110 103
-0.156832 0.367380 0.817000 116 117 114
-0.050619 0.372776 0.829000 114 120 119
