0.599805 0.409706 1.136000 123 129 128
0.764901 0.439640 1.219000 123 131 124
0.882539 0.437837 1.214000 133 131 125
-0.579255 0.445738 1.227000 83 91 84
-0.455324 0.443921 1.222000 102 106 111
-0.333753 0.443921 1.222000 120 127 136
-0.209578 0.438472 1.207000 142 152 159
-0.089351 0.437746 1.205000 132 136 141
0.030580 0.438472 1.207000 135 138 146
0.150658 0.438472 1.207000 139 141 151
0.270737 0.438472 1.207000 134 143 147
0.393082 0.441015 1.214000 132 140 142
0.509201 0.437019 1.203000 133 139 139
0.604835 0.420309 1.157000 120 124 123
0.758518 0.442832 1.219000 122 128 121
0.873295 0.439562 1.210000 133 132 124
-0.586492 0.447121 1.222000 93 95 89
-0.463019 0.445291 1.217000 101 109 111
-0.341946 0.445291 1.217000 128 136 143
-0.218332 0.440169 1.203000 131 138 147
-0.098651 0.440169 1.203000 126 133 137
0.021030 0.440169 1.203000 133 137 142
0.140711 0.440169 1.203000 132 128 139
0.260391 0.440169 1.203000 111 117 124
0.382283 0.442730 1.210000 132 138 138
0.497675 0.438339 1.198000 130 133 136
0.607075 0.431387 1.179000 129 135 128
0.750901 0.445291 1.217000 123 126 118
0.863377 0.440900 1.205000 130 129 121
-0.587279 0.448477 1.217000 83 85 79
-0.463524 0.445898 1.210000 100 108 110
-0.343714 0.446635 1.212000 128 137 141
-0.220560 0.441476 1.198000 122 131 140
-0.101377 0.441476 1.198000 131 137 144
0.017806 0.441476 1.198000 130 133 141
0.137218 0.442213 1.200000 117 120 128
0.256600 0.442213 1.200000 125 130 139
0.376922 0.443318 1.203000 131 137 137
0.493713 0.440739 1.196000 133 139 139
0.606550 0.436316 1.184000 134 140 133
0.741470 0.446635 1.212000 125 132 123
0.855645 0.443318 1.203000 131 134 126
0.708026 0.314708 0.854000 128 130 124
-0.473440 0.446468 1.203000 119 123 123
-0.354936 0.447952 1.207000 127 131 136
-0.232133 0.442756 1.193000 115 125 132
-0.113733 0.443870 1.196000 124 132 139
0.005238 0.442756 1.193000 128 126 132
0.123924 0.442756 1.193000 137 139 144
0.243220 0.443870 1.196000 134 138 143
0.362204 0.443870 1.196000 133 142 140
0.479177 0.442014 1.191000 128 132 132
0.596660 0.441272 1.189000 138 138 138
0.699916 0.431994 1.164000 128 130 124
0.840945 0.445354 1.200000 126 128 122
0.691716 0.313604 0.845000 130 136 129
-0.484018 0.447748 1.198000 94 93 97
-0.365444 0.448496 1.200000 120 129 133
-0.244216 0.445132 1.191000 124 132 134
-0.125518 0.444385 1.189000 137 147 149
-0.007230 0.444385 1.189000 132 138 145
0.111244 0.445132 1.191000 120 120 130
0.229731 0.445132 1.191000 131 135 140
0.348803 0.445880 1.193000 136 140 140
0.464745 0.443263 1.186000 130 129 133
0.582735 0.443263 1.186000 121 127 127
0.653884 0.410000 1.097000 118 120 114
0.831879 0.447001 1.196000 131 132 129
0.683225 0.313947 0.840000 126 136 124
-0.489472 0.450132 1.196000 102 111 110
-0.370488 0.450132 1.196000 117 124 128
-0.250032 0.447498 1.189000 129 131 136
-0.131190 0.445616 1.184000 128 135 139
-0.013422 0.446368 1.186000 132 135 143
0.104215 0.444863 1.182000 134 137 145
0.222557 0.446368 1.186000 130 134 139
0.341982 0.448250 1.191000 130 134 133
0.456989 0.444863 1.182000 113 117 117
0.574580 0.444863 1.182000 123 129 129
0.610774 0.392548 1.043000 130 132 126
0.820423 0.449003 1.193000 122 128 121
0.675594 0.314641 0.836000 126 139 126
-0.497615 0.452126 1.193000 99 105 105
-0.378294 0.451368 1.191000 121 131 133
-0.258280 0.448715 1.184000 130 135 144
-0.139896 0.446821 1.179000 133 136 139
-0.022660 0.447957 1.182000 123 127 127
0.094529 0.446063 1.177000 130 133 141
0.212882 0.448715 1.184000 130 135 138
0.332069 0.450610 1.189000 133 139 139
0.446569 0.446821 1.179000 130 139 138
0.562906 0.446063 1.177000 128 135 131
0.595650 0.390731 1.031000 125 128 120
0.805220 0.450610 1.189000 118 125 116
0.659880 0.314556 0.830000 123 125 119
-0.522640 0.452578 1.186000 88 95 91
-0.405674 0.453723 1.189000 119 126 130
-0.284969 0.449907 1.179000 128 136 143
-0.167391 0.449144 1.177000 128 132 137
-0.050297 0.449144 1.177000 132 137 140
0.066683 0.448381 1.175000 131 141 143
0.184672 0.451052 1.182000 137 140 143
0.302263 0.451052 1.182000 131 139 141
0.417368 0.448381 1.175000 133 139 139
0.534264 0.448381 1.175000 126 126 127
0.610149 0.420142 1.101000 136 138 132
0.773755 0.449907 1.179000 121 129 117
0.652437 0.320545 0.840000 140 146 139
-0.548864 0.456836 1.189000 87 91 90
-0.429490 0.455683 1.186000 109 115 122
-0.309662 0.452994 1.179000 130 139 143
-0.191390 0.450689 1.173000 128 133 136
-0.074503 0.449536 1.170000 121 125 130
0.042074 0.451457 1.175000 128 130 135
0.158698 0.450689 1.173000 130 133 136
0.276333 0.452225 1.177000 121 123 128
0.391088 0.449536 1.170000 125 128 131
0.507485 0.449536 1.170000 130 134 133
0.616951 0.444541 1.157000 134 138 138
0.738580 0.443004 1.153000 119 128 119
0.645385 0.326970 0.851000 139 141 135
-0.333295 0.218563 0.565000 81 92 84
-0.465176 0.457241 1.182000 124 129 132
-0.344938 0.453760 1.173000 127 130 138
-0.227269 0.451825 1.168000 125 132 136
-0.111070 0.451825 1.168000 127 132 135
0.005129 0.451825 1.168000 132 139 143
0.121120 0.451052 1.166000 130 132 137
0.238543 0.453760 1.173000 129 137 139
0.355239 0.453760 1.173000 126 129 132
0.468314 0.450278 1.164000 108 117 116
0.584115 0.450278 1.164000 126 135 133
0.616936 0.396894 1.026000 126 132 125
0.838575 0.456080 1.179000 119 126 117
0.705539 0.329198 0.851000 136 140 139
-0.500185 0.458388 1.177000 105 118 116
-0.382440 0.457609 1.175000 115 121 128
-0.263511 0.454104 1.166000 112 118 125
-0.146626 0.451378 1.159000 123 125 135
-0.031458 0.453325 1.164000 118 127 126
0.084198 0.452546 1.162000 123 130 134
0.201176 0.455662 1.170000 123 124 132
0.318388 0.456830 1.173000 129 138 137
0.431745 0.453325 1.164000 114 121 125
0.546605 0.452546 1.162000 134 129 133
0.610861 0.415548 1.067000 120 128 121
0.832401 0.459167 1.179000 123 130 121
0.696964 0.329479 0.846000 132 139 135
-0.498485 0.459901 1.173000 103 116 115
-0.380813 0.458725 1.170000 113 122 126
-0.262607 0.455589 1.162000 116 125 129
-0.146120 0.452844 1.155000 117 120 128
-0.031322 0.454412 1.159000 125 133 135
0.083981 0.454412 1.159000 131 138 142
0.200488 0.457157 1.166000 124 121 130
0.317030 0.457941 1.168000 130 136 136
0.431004 0.455589 1.162000 123 131 133
0.544253 0.453628 1.157000 128 126 127
0.620606 0.426967 1.089000 128 136 129
0.632749 0.335222 0.855000 130 138 131
0.716970 0.334830 0.854000 123 127 126
-0.481895 0.461788 1.170000 119 128 126
-0.363623 0.459420 1.164000 131 135 140
-0.245906 0.455868 1.155000 133 142 146
-0.130320 0.453500 1.149000 118 124 131
-0.016095 0.455868 1.155000 126 133 137
0.098810 0.455868 1.155000 126 133 137
0.214456 0.457447 1.159000 136 134 140
0.330613 0.458631 1.162000 127 125 126
0.442758 0.455079 1.153000 122 122 122
0.556498 0.454289 1.151000 129 130 127
0.613291 0.415215 1.052000 132 140 133
0.640202 0.336671 0.853000 136 146 141
-0.342814 0.226863 0.571000 77 88 80
-0.471089 0.463262 1.166000 121 130 129
-0.352958 0.460481 1.159000 133 142 146
-0.236014 0.457302 1.151000 111 105 116
-0.120979 0.455316 1.146000 117 125 132
-0.006987 0.456508 1.149000 128 138 140
0.107321 0.456508 1.149000 134 138 143
0.222401 0.458097 1.153000 130 132 137
0.337108 0.458097 1.153000 130 136 135
0.449071 0.455316 1.146000 131 131 131
0.563081 0.455316 1.146000 123 124 121
0.613282 0.412407 1.038000 133 141 134
0.642435 0.338904 0.853000 139 147 140
-0.339824 0.228358 0.571000 80 84 83
-0.469473 0.464715 1.162000 121 132 131
-0.351740 0.461916 1.155000 132 138 145
-0.234989 0.458316 1.146000 105 106 114
-0.120557 0.456717 1.142000 115 123 130
-0.006957 0.457516 1.144000 128 140 142
0.106854 0.457516 1.144000 134 138 143
0.221051 0.458316 1.146000 130 132 137
0.335938 0.459516 1.149000 131 138 134
0.447504 0.456717 1.142000 133 131 132
0.561116 0.456717 1.142000 122 123 120
0.618599 0.418723 1.047000 136 140 139
0.640202 0.341138 0.853000 134 142 135
-0.340419 0.230256 0.572000 82 81 78
-0.462193 0.466550 1.159000 126 137 136
-0.344495 0.463329 1.151000 128 131 139
-0.227790 0.458901 1.140000 135 143 150
-0.114376 0.458901 1.140000 119 122 130
-0.000962 0.458096 1.138000 131 141 143
0.112450 0.458901 1.140000 133 136 144
0.225863 0.458901 1.140000 135 138 141
0.339276 0.458901 1.140000 133 139 138
0.451101 0.457291 1.136000 137 137 138
0.565109 0.458096 1.138000 118 123 119
0.619909 0.418647 1.040000 130 135 131
0.632723 0.345384 0.858000 135 143 131
0.713060 0.342968 0.852000 121 133 123
-0.474893 0.467153 1.153000 115 123 125
-0.358000 0.464317 1.146000 126 134 136
-0.242287 0.461075 1.138000 133 137 142
-0.128619 0.459455 1.134000 125 135 142
-0.015830 0.460265 1.136000 128 137 141
0.097356 0.461075 1.138000 126 128 133
0.210570 0.461075 1.138000 125 130 133
0.324353 0.461886 1.140000 134 140 139
0.436230 0.460265 1.136000 125 131 131
0.548278 0.459455 1.134000 123 129 129
0.639524 0.444464 1.097000 137 141 140
0.630176 0.358974 0.886000 128 131 118
0.682647 0.341147 0.842000 127 134 130
-0.492149 0.469356 1.151000 108 111 114
-0.374689 0.465686 1.142000 122 130 132
-0.259705 0.463239 1.136000 130 139 143
-0.145786 0.460385 1.129000 120 128 135
-0.033616 0.462424 1.134000 119 124 127
0.079061 0.461608 1.132000 135 139 144
0.192694 0.464055 1.138000 129 132 135
0.306446 0.464870 1.140000 132 128 134
0.417649 0.462424 1.134000 127 129 134
0.529530 0.461608 1.132000 131 137 137
0.637042 0.457938 1.123000 125 131 124
0.641077 0.389023 0.954000 130 132 121
0.656194 0.343352 0.842000 121 132 124
-0.515359 0.471548 1.149000 116 126 121
-0.397211 0.467034 1.138000 125 130 133
-0.282500 0.464572 1.132000 127 137 144
-0.169132 0.462520 1.127000 123 130 134
-0.057012 0.462520 1.127000 127 133 133
0.055108 0.462520 1.127000 132 139 143
0.167969 0.464572 1.132000 128 136 138
0.280586 0.464572 1.132000 127 133 132
0.393204 0.464572 1.132000 132 136 135
0.505821 0.464572 1.132000 118 127 125
0.614614 0.461699 1.125000 132 140 133
0.620544 0.392752 0.957000 122 129 120
0.638669 0.348018 0.848000 133 141 134
-0.538183 0.470839 1.140000 116 125 124
-0.424770 0.470839 1.140000 119 127 129
-0.309172 0.467535 1.132000 144 148 153
-0.195339 0.464644 1.125000 130 136 143
-0.083419 0.464644 1.125000 125 127 139
0.028451 0.463818 1.123000 132 134 139
0.140173 0.463818 1.123000 130 136 136
0.252344 0.464644 1.125000 127 131 136
0.364265 0.464644 1.125000 133 142 141
0.476185 0.464644 1.125000 128 136 138
0.587061 0.463818 1.123000 112 116 115
0.616116 0.407235 0.986000 134 142 135
0.630281 0.358086 0.867000 136 141 137
0.700005 0.349825 0.847000 123 129 128
-0.453021 0.472161 1.136000 107 112 115
-0.337910 0.469252 1.129000 133 144 148
-0.224393 0.466758 1.123000 111 109 115
-0.112470 0.465927 1.121000 131 139 141
-0.000946 0.465096 1.119000 128 137 141
0.110576 0.465927 1.121000 115 116 124
0.221702 0.465096 1.119000 130 138 140
0.333026 0.465096 1.119000 133 139 139
0.445144 0.465927 1.121000 127 131 131
0.556667 0.465927 1.121000 125 132 128
0.653884 0.455952 1.097000 130 129 126
0.626504 0.371578 0.894000 122 126 115
0.666627 0.346224 0.833000 130 137 128
-0.481912 0.474299 1.134000 121 129 131
-0.366166 0.470535 1.125000 116 126 128
-0.252889 0.468025 1.119000 114 121 125
-0.141312 0.467189 1.117000 108 106 112
-0.030241 0.468025 1.119000 133 141 143
0.080938 0.467189 1.117000 130 138 140
0.192750 0.468862 1.121000 114 116 121
0.303730 0.468025 1.119000 128 128 128
0.415796 0.468862 1.121000 132 136 136
0.526378 0.468025 1.119000 126 132 131
0.633143 0.464679 1.111000 130 137 128
0.630326 0.392321 0.938000 121 129 117
0.644952 0.349660 0.836000 128 127 124
-0.506389 0.475164 1.129000 119 127 129
-0.391277 0.471797 1.121000 130 136 143
-0.279255 0.470955 1.119000 128 136 143
-0.167331 0.469271 1.115000 123 127 132
-0.056405 0.469271 1.115000 123 130 134
0.054521 0.469271 1.115000 121 117 123
0.165447 0.469271 1.115000 131 136 139
0.275877 0.468430 1.113000 136 136 137
0.388688 0.470955 1.119000 123 121 122
0.499118 0.470113 1.117000 138 138 138
0.605873 0.466746 1.109000 128 134 133
0.610935 0.398144 0.946000 128 137 128
0.631264 0.356478 0.847000 132 134 128
-0.525340 0.473884 1.119000 121 132 131
-0.414016 0.473884 1.119000 124 132 134
-0.302151 0.473037 1.117000 132 137 146
-0.190342 0.471343 1.113000 105 113 120
-0.079472 0.470496 1.111000 118 122 127
0.031000 0.469650 1.109000 129 138 142
0.141329 0.469650 1.109000 133 137 142
0.252112 0.470496 1.111000 134 137 140
0.363293 0.471343 1.113000 132 134 128
0.473168 0.470496 1.111000 116 122 122
0.581595 0.468802 1.107000 125 132 128
0.635771 0.427301 1.009000 134 141 137
0.629632 0.365471 0.863000 118 126 119
0.700565 0.357848 0.845000 123 127 116
-0.454217 0.475962 1.117000 131 137 136
-0.341863 0.474257 1.113000 124 133 137
-0.230305 0.472553 1.109000 129 138 147
-0.119760 0.471701 1.107000 112 115 118
-0.009613 0.470848 1.105000 134 143 147
0.100682 0.472553 1.109000 132 139 143
0.209869 0.469996 1.103000 132 138 137
0.320760 0.471701 1.107000 133 133 133
0.431669 0.472553 1.109000 125 125 125
0.541020 0.471701 1.107000 125 126 123
0.647621 0.469144 1.101000 135 141 134
0.625425 0.386053 0.906000 130 132 126
0.651585 0.351538 0.825000 128 136 124
-0.505040 0.477171 1.113000 105 111 110
-0.392896 0.475456 1.109000 120 129 133
-0.282057 0.474599 1.107000 134 134 146
-0.170995 0.472026 1.101000 123 127 132
-0.061462 0.472026 1.101000 126 131 134
0.048159 0.472884 1.103000 137 141 146
0.158177 0.473741 1.105000 128 131 134
0.267138 0.472026 1.101000 127 131 131
0.378724 0.474599 1.107000 131 137 137
0.487970 0.473741 1.105000 125 125 126
0.593573 0.470312 1.097000 124 132 125
0.628402 0.420579 0.981000 133 139 132
0.629789 0.364845 0.851000 115 119 108
-0.355765 0.254493 0.590000 76 81 77
-0.445157 0.478360 1.109000 120 124 129
-0.333016 0.475772 1.103000 121 130 134
-0.222879 0.474909 1.101000 134 137 145
-0.113140 0.474046 1.099000 128 136 138
-0.003792 0.472321 1.095000 112 116 121
0.105912 0.475772 1.103000 125 132 136
0.214080 0.472321 1.095000 133 138 141
0.324787 0.474909 1.101000 122 122 122
0.434320 0.474909 1.101000 127 134 130
0.541877 0.473184 1.097000 118 121 113
0.649826 0.472321 1.095000 133 134 131
0.618578 0.382170 0.886000 124 125 117
0.657267 0.355427 0.824000 136 140 129
-0.501410 0.479527 1.105000 114 123 121
-0.390061 0.477791 1.101000 117 124 128
-0.280019 0.476923 1.099000 126 128 140
-0.169442 0.473452 1.091000 115 118 121
-0.060904 0.473452 1.091000 122 130 132
0.047722 0.474320 1.093000 140 142 147
0.157032 0.476056 1.097000 125 131 131
0.264711 0.473452 1.091000 130 136 136
0.375987 0.476923 1.099000 132 134 139
0.484438 0.476056 1.097000 116 120 120
0.588162 0.471716 1.087000 128 135 131
0.643135 0.435697 1.004000 129 135 128
0.628309 0.368433 0.849000 123 126 113
-0.333111 0.237063 0.543000 85 91 84
-0.457187 0.481547 1.103000 109 114 117
-0.344935 0.478054 1.095000 113 123 130
-0.235136 0.476308 1.091000 135 139 144
-0.126366 0.475435 1.089000 117 122 131
-0.017993 0.474562 1.087000 117 120 128
0.090645 0.477181 1.093000 134 138 138
0.198287 0.474562 1.087000 117 123 123
0.306992 0.475435 1.089000 127 132 135
0.415331 0.475435 1.089000 126 130 129
0.523670 0.475435 1.089000 135 136 133
0.630849 0.474562 1.087000 128 129 121
0.610405 0.388992 0.891000 115 122 113
0.650404 0.361924 0.829000 143 135 119
-0.515950 0.482678 1.099000 129 139 141
-0.403656 0.479164 1.091000 113 126 132
-0.294577 0.478286 1.089000 116 120 125
-0.185383 0.476090 1.084000 110 115 118
-0.077398 0.475212 1.082000 125 133 135
0.030301 0.476090 1.084000 129 127 133
0.138780 0.478286 1.089000 124 132 134
0.246439 0.476968 1.086000 137 137 137
0.354480 0.476968 1.086000 123 123 124
0.462521 0.476968 1.086000 134 138 137
0.567410 0.474333 1.080000 117 118 115
0.671104 0.471698 1.074000 130 136 129
0.623011 0.376392 0.857000 79 72 67
0.688435 0.365851 0.833000 128 133 118
-0.476805 0.483788 1.095000 108 111 114
-0.365181 0.480253 1.087000 117 124 128
-0.256331 0.478928 1.084000 119 121 131
-0.147941 0.477161 1.080000 142 142 143
-0.040422 0.476277 1.078000 116 125 129
0.067071 0.478044 1.082000 122 122 122
0.174391 0.477161 1.080000 118 121 124
0.281313 0.476277 1.078000 128 133 136
0.390000 0.478044 1.082000 127 132 128
0.497643 0.478044 1.082000 132 132 133
0.601929 0.475393 1.076000 127 135 128
0.605027 0.402494 0.911000 130 125 115
0.641441 0.371125 0.840000 133 124 111
-0.346707 0.263549 0.593000 91 98 89
-0.416022 0.482655 1.086000 107 109 119
-0.306847 0.480877 1.082000 112 123 127
-0.198099 0.478210 1.076000 104 111 115
-0.090884 0.477321 1.074000 125 130 133
0.015993 0.478210 1.076000 130 133 136
0.123496 0.479988 1.080000 132 130 136
0.230513 0.479099 1.078000 135 140 136
0.337758 0.479099 1.078000 129 132 135
0.445003 0.479099 1.078000 128 133 129
0.550198 0.477321 1.074000 123 128 124
0.658269 0.478210 1.076000 135 138 130
0.611793 0.380879 0.857000 116 123 114
0.676718 0.369769 0.832000 134 133 116
-0.470476 0.485945 1.087000 115 124 122
-0.360002 0.482816 1.080000 117 125 132
-0.251622 0.481027 1.076000 107 112 123
-0.144308 0.480133 1.074000 112 111 115
-0.037321 0.478345 1.070000 99 104 107
0.069387 0.480133 1.074000 134 140 140
0.175905 0.479239 1.072000 112 116 116
0.282026 0.478345 1.070000 126 135 134
0.389202 0.479239 1.072000 127 133 133
0.496775 0.480133 1.074000 122 126 125
0.602498 0.479239 1.072000 134 141 132
0.593410 0.397876 0.890000 119 120 107
0.644406 0.375970 0.841000 120 118 106
-0.505137 0.486542 1.082000 124 133 131
-0.396024 0.484744 1.078000 118 126 128
-0.287708 0.482945 1.074000 95 100 103
-0.180187 0.481146 1.070000 103 109 109
-0.073531 0.479797 1.067000 118 116 122
0.032772 0.482046 1.072000 121 125 130
0.139421 0.482046 1.072000 123 129 129
0.245151 0.480247 1.068000 128 126 127
0.352059 0.481146 1.070000 125 132 128
0.458508 0.481146 1.070000 122 126 125
0.563373 0.479797 1.067000 124 133 124
0.667014 0.477999 1.063000 137 134 131
0.620877 0.382669 0.851000 65 59 52
0.688958 0.373675 0.831000 132 132 121
-0.426277 0.486661 1.076000 120 124 129
-0.318637 0.485757 1.074000 121 129 136
-0.210607 0.483043 1.068000 114 123 132
-0.104259 0.482591 1.067000 133 138 141
0.001892 0.482591 1.067000 120 124 129
0.108144 0.483043 1.068000 126 135 134
0.214193 0.482591 1.067000 119 125 125
0.319743 0.481686 1.065000 117 126 125
0.426494 0.482591 1.067000 121 127 126
0.531647 0.481686 1.065000 133 132 129
0.641789 0.484852 1.072000 123 132 118
0.600005 0.385801 0.853000 114 122 110
0.669611 0.377208 0.834000 142 130 106
-0.456414 0.488569 1.074000 116 125 124
-0.348265 0.486749 1.070000 119 123 128
-0.241137 0.485384 1.067000 120 131 135
-0.134734 0.484474 1.065000 104 107 110
-0.028728 0.483565 1.063000 118 126 128
0.077170 0.484474 1.065000 121 120 124
0.182778 0.483565 1.063000 128 134 134
0.288530 0.483565 1.063000 114 120 119
0.392799 0.481745 1.059000 125 134 133
0.500036 0.483565 1.063000 121 130 128
0.608068 0.485384 1.067000 130 130 130
0.585122 0.393038 0.864000 121 124 116
0.651660 0.381666 0.839000 105 99 87
-0.487343 0.491380 1.074000 136 140 139
-0.378370 0.488635 1.068000 114 117 125
-0.270846 0.486348 1.063000 125 133 135
-0.164783 0.485433 1.061000 111 111 112
-0.059229 0.485433 1.061000 119 123 128
0.046412 0.486348 1.063000 126 133 137
0.151592 0.484517 1.059000 116 114 120
0.256947 0.484517 1.059000 135 135 135
0.361618 0.483602 1.057000 121 125 124
0.467657 0.484517 1.059000 122 127 123
0.574094 0.485433 1.061000 126 134 127
0.575523 0.404451 0.884000 132 135 127
0.635699 0.387522 0.847000 62 56 49
-0.361045 0.277926 0.604000 100 109 100
-0.413554 0.490051 1.065000 112 116 116
-0.308180 0.490971 1.067000 112 118 118
-0.200893 0.488210 1.061000 114 124 126
-0.094980 0.486370 1.057000 119 121 126
0.010176 0.486370 1.057000 121 123 128
0.115550 0.487290 1.059000 119 119 119
0.219862 0.484989 1.054000 121 125 125
0.325335 0.485910 1.056000 128 134 133
0.430392 0.485910 1.056000 123 129 128
0.535955 0.486370 1.057000 131 130 127
0.644750 0.489131 1.063000 130 136 129
0.607588 0.390200 0.848000 106 103 93
0.678080 0.382378 0.831000 141 126 111
-0.448956 0.491914 1.063000 122 131 130
-0.343203 0.491914 1.063000 109 114 125
-0.236557 0.490062 1.059000 123 131 133
-0.130954 0.489137 1.057000 105 110 113
-0.025725 0.487749 1.054000 105 108 116
0.079357 0.489137 1.057000 128 132 132
0.184339 0.488674 1.056000 117 117 118
0.288847 0.487749 1.054000 133 139 138
0.392210 0.485898 1.050000 120 124 129
0.498562 0.487749 1.054000 127 132 128
0.608571 0.491914 1.063000 123 123 123
0.583002 0.393808 0.851000 115 118 110
0.656680 0.387330 0.837000 87 80 70
-0.483259 0.495627 1.065000 133 139 139
-0.375890 0.493766 1.061000 120 130 132
-0.269063 0.491439 1.056000 121 128 132
-0.163696 0.490508 1.054000 110 108 114
-0.058727 0.489577 1.052000 105 113 115
0.046019 0.490508 1.054000 119 127 129
0.150018 0.487716 1.048000 127 131 131
0.254763 0.488647 1.050000 136 137 134
0.358539 0.487716 1.048000 122 122 123
0.463682 0.488647 1.050000 109 113 112
0.571388 0.491439 1.056000 129 134 130
0.563089 0.399294 0.858000 108 112 101
0.637866 0.392779 0.844000 49 50 42
-0.360252 0.284541 0.608000 108 121 113
-0.404913 0.494671 1.057000 119 123 128
-0.299474 0.494203 1.056000 115 117 122
-0.193681 0.492331 1.052000 118 118 118
-0.088684 0.490460 1.048000 112 121 125
0.015562 0.489991 1.047000 118 123 126
0.119837 0.490460 1.048000 123 127 126
0.223456 0.489056 1.045000 116 122 121
0.328045 0.489991 1.047000 129 133 132
0.431380 0.489056 1.045000 127 133 132
0.537903 0.491395 1.050000 114 118 117
0.620951 0.475016 1.015000 127 133 126
0.623105 0.398264 0.851000 48 49 36
0.691133 0.388904 0.831000 134 127 109
-0.425839 0.496027 1.054000 108 112 112
-0.320373 0.495086 1.052000 114 119 122
-0.215304 0.494144 1.050000 124 124 125
-0.110528 0.492733 1.047000 106 116 118
-0.006343 0.490850 1.043000 105 109 114
0.097794 0.492733 1.047000 118 122 122
0.201183 0.490850 1.043000 119 125 125
0.304947 0.490850 1.043000 122 126 125
0.407926 0.489909 1.041000 123 128 124
0.514929 0.493203 1.048000 130 135 131
0.625689 0.498380 1.059000 110 110 104
0.599511 0.398139 0.846000 87 78 60
0.672361 0.391551 0.832000 99 97 83
-0.460835 0.497840 1.052000 112 118 118
-0.354822 0.495947 1.048000 119 127 129
-0.249845 0.494527 1.045000 111 117 117
-0.145883 0.494527 1.045000 107 110 113
-0.041760 0.492634 1.041000 108 115 119
0.061923 0.493581 1.043000 131 137 136
0.165368 0.492634 1.041000 112 112 113
0.268932 0.492634 1.041000 128 133 129
0.372138 0.492161 1.040000 126 130 129
0.476060 0.492634 1.041000 119 121 115
0.585749 0.497840 1.052000 126 133 124
0.576507 0.401301 0.848000 74 67 62
0.649180 0.394202 0.833000 54 53 45
-0.473704 0.499642 1.050000 126 133 129
-0.367486 0.497263 1.045000 110 117 121
-0.262515 0.495360 1.041000 100 102 107
-0.158798 0.494884 1.040000 129 129 129
-0.055121 0.492980 1.036000 110 117 121
0.048131 0.494884 1.040000 116 125 123
0.151304 0.493932 1.038000 130 134 133
0.254569 0.493932 1.038000 128 132 131
0.357145 0.492980 1.036000 114 120 119
0.461101 0.493932 1.038000 120 129 120
0.569260 0.498215 1.047000 120 114 112
0.563612 0.405424 0.852000 99 107 100
0.637720 0.398762 0.838000 48 48 37
-0.482391 0.499999 1.045000 137 143 142
-0.376981 0.498085 1.041000 112 116 121
-0.272629 0.496650 1.038000 123 125 130
-0.169037 0.495693 1.036000 110 110 111
-0.065652 0.493300 1.031000 110 118 120
0.036989 0.494257 1.033000 114 118 118
0.139757 0.494257 1.033000 126 132 132
0.242056 0.493300 1.031000 120 117 121
0.345294 0.494257 1.033000 124 124 124
0.448062 0.494257 1.033000 128 134 133
0.556162 0.499042 1.043000 123 125 119
0.559151 0.407655 0.852000 100 109 100
0.634843 0.401913 0.840000 47 45 33
-0.483270 0.500810 1.041000 134 138 138
-0.379341 0.500329 1.040000 113 119 119
-0.274285 0.497443 1.034000 128 129 137
-0.171252 0.496962 1.033000 118 122 122
-0.068086 0.494075 1.027000 110 119 118
0.034152 0.495037 1.029000 109 111 116
0.136522 0.495037 1.029000 119 128 127
0.238196 0.493594 1.026000 111 111 111
0.341263 0.495037 1.029000 125 125 125
0.443633 0.495037 1.029000 133 133 133
0.552370 0.500810 1.041000 121 128 119
0.561382 0.409885 0.852000 99 109 97
0.635526 0.403150 0.838000 47 45 33
-0.478237 0.501117 1.036000 134 139 142
-0.374446 0.500150 1.034000 124 130 130
-0.270265 0.497731 1.029000 125 132 136
-0.167568 0.496764 1.027000 108 108 108
-0.065079 0.494345 1.022000 107 110 118
0.036738 0.496280 1.026000 116 124 126
0.138810 0.496280 1.026000 120 118 119
0.239943 0.494345 1.022000 123 123 124
0.342954 0.496280 1.026000 126 126 126
0.444158 0.495313 1.024000 125 129 128
0.555096 0.503536 1.041000 122 125 117
0.560723 0.411632 0.851000 100 110 98
0.635526 0.405344 0.838000 46 44 32
-0.475929 0.501398 1.031000 129 132 135
-0.372635 0.500425 1.029000 124 133 132
-0.268952 0.497994 1.024000 125 133 135
-0.166753 0.497021 1.022000 118 118 118
-0.064760 0.494589 1.017000 103 107 112
0.036524 0.496048 1.020000 119 127 129
0.138269 0.497021 1.022000 115 111 112
0.239239 0.495562 1.019000 122 126 125
0.340948 0.496048 1.020000 125 130 126
0.442423 0.496048 1.020000 117 117 117
0.554563 0.505775 1.040000 121 124 116
0.566073 0.412887 0.849000 94 107 94
0.638276 0.405106 0.833000 46 44 30
-0.466016 0.502141 1.027000 130 136 136
-0.363490 0.501652 1.026000 110 113 121
-0.259890 0.498719 1.020000 125 128 136
-0.158260 0.498230 1.019000 112 112 112
-0.056661 0.496274 1.015000 113 117 122
0.044404 0.497252 1.017000 117 122 125
0.146010 0.498719 1.020000 134 130 131
0.246757 0.497252 1.017000 118 122 121
0.347933 0.497252 1.017000 120 124 123
0.448226 0.496274 1.015000 120 124 123
0.548663 0.495785 1.014000 127 127 121
0.572255 0.413154 0.845000 62 55 45
0.643116 0.404842 0.828000 47 45 33
-0.454818 0.504338 1.026000 124 132 134
-0.350683 0.501389 1.020000 125 128 136
-0.247987 0.498931 1.015000 121 119 120
-0.147009 0.498931 1.015000 107 107 107
-0.045896 0.497457 1.012000 111 115 120
0.054783 0.497457 1.012000 131 136 139
0.156230 0.499914 1.017000 127 132 135
0.256901 0.498931 1.015000 127 123 123
0.357525 0.498440 1.014000 127 131 130
0.456595 0.496474 1.010000 126 127 124
0.499842 0.415858 0.846000 126 127 124
0.581245 0.413892 0.842000 52 50 38
0.650795 0.405044 0.824000 49 47 33
-0.439667 0.505048 1.022000 128 139 138
-0.335678 0.501589 1.015000 125 131 131
-0.234007 0.500106 1.012000 129 129 129
-0.133328 0.500106 1.012000 116 121 124
-0.032584 0.499118 1.010000 97 100 103
0.068030 0.500106 1.012000 122 131 129
0.168709 0.500106 1.012000 122 131 129
0.269388 0.500106 1.012000 126 132 131
0.369336 0.499118 1.010000 121 117 117
0.469351 0.498624 1.009000 124 127 119
0.506487 0.418073 0.846000 120 127 118
0.589953 0.417579 0.845000 50 48 36
0.654874 0.405719 0.821000 51 47 33
-0.430373 0.506233 1.019000 120 131 130
-0.326737 0.502756 1.012000 129 138 137
-0.225388 0.501265 1.009000 121 121 122
-0.125008 0.501265 1.009000 113 117 117
-0.024627 0.501265 1.009000 109 113 113
0.075754 0.501265 1.009000 119 125 125
0.176134 0.501265 1.009000 119 125 124
0.276515 0.501265 1.009000 128 132 131
0.376895 0.501265 1.009000 126 125 122
0.478695 0.502756 1.012000 131 134 126
0.504868 0.420785 0.847000 119 127 115
0.587741 0.419791 0.845000 50 48 36
0.651930 0.407371 0.820000 51 47 33
-0.430916 0.506404 1.014000 124 135 134
-0.328410 0.503907 1.009000 123 131 133
-0.227126 0.501909 1.005000 113 117 117
-0.127143 0.501909 1.005000 116 116 116
-0.027215 0.502908 1.007000 109 115 115
0.072967 0.502908 1.007000 111 107 113
0.173149 0.502908 1.007000 123 132 130
0.273330 0.502908 1.007000 132 132 132
0.372399 0.501410 1.004000 123 124 121
0.472282 0.501410 1.004000 131 131 125
0.496584 0.423501 0.848000 117 125 118
0.578892 0.422003 0.845000 56 52 40
0.644912 0.410517 0.822000 52 48 36
-0.443313 0.508054 1.012000 128 134 134
-0.341618 0.506548 1.009000 118 123 126
-0.240042 0.504038 1.004000 117 123 123
-0.140159 0.504038 1.004000 112 116 115
-0.040276 0.504038 1.004000 110 115 118
0.059488 0.503034 1.002000 130 135 138
0.159490 0.504038 1.004000 122 129 133
0.259373 0.504038 1.004000 131 132 129
0.358183 0.502532 1.001000 121 125 125
0.453195 0.497512 0.991000 114 113 110
0.482123 0.424717 0.846000 124 132 125
0.570304 0.427730 0.852000 102 100 100
0.644301 0.420701 0.838000 95 99 88
-0.460490 0.509190 1.009000 117 127 122
-0.359396 0.508181 1.007000 124 130 130
-0.258442 0.506667 1.004000 126 132 132
-0.158243 0.505657 1.002000 118 122 121
-0.058559 0.505657 1.002000 105 105 105
0.041084 0.505153 1.001000 123 127 126
0.141091 0.506667 1.004000 131 137 136
0.239774 0.504143 0.999000 132 136 136
0.339838 0.505153 1.001000 124 130 129
0.426693 0.490518 0.972000 121 123 117
0.469348 0.423400 0.839000 126 131 127
0.563358 0.431474 0.855000 100 107 103
0.646143 0.429960 0.852000 42 41 24
-0.469189 0.509802 1.005000 126 135 134
-0.369206 0.509802 1.005000 119 128 127
-0.268420 0.508281 1.002000 118 118 119
-0.168567 0.507773 1.001000 128 134 134
-0.068845 0.506759 0.999000 105 110 106
0.030541 0.506759 0.999000 111 110 114
0.130187 0.507773 1.001000 129 130 127
0.228164 0.504223 0.994000 121 117 117
0.327711 0.505237 0.996000 119 125 125
0.411372 0.486976 0.960000 119 121 115
0.466595 0.425089 0.838000 127 127 121
0.563089 0.435234 0.858000 102 108 107
0.647691 0.434727 0.857000 43 42 25
-0.470412 0.510904 1.002000 125 129 128
-0.370357 0.510394 1.001000 125 132 136
-0.270773 0.510394 1.001000 121 121 121
-0.170846 0.509374 0.999000 132 136 136
-0.071317 0.508355 0.997000 111 112 109
0.027841 0.507845 0.996000 114 117 125
0.126929 0.507845 0.996000 122 127 123
0.224881 0.505295 0.991000 114 114 115
0.324450 0.506825 0.994000 124 130 130
0.399914 0.478781 0.939000 123 124 121
0.452363 0.424224 0.832000 111 112 104
0.551214 0.436971 0.857000 98 106 99
0.639444 0.439010 0.861000 36 34 20
-0.181831 0.159388 0.311000 118 128 123
-0.380079 0.511990 0.999000 122 129 133
-0.280693 0.511990 0.999000 126 125 129
-0.180945 0.510965 0.997000 129 129 130
-0.081348 0.508402 0.992000 114 114 115
0.017341 0.508402 0.992000 101 96 100
0.116265 0.509427 0.994000 120 131 130
0.214071 0.506865 0.989000 119 128 126
0.313409 0.508402 0.992000 123 129 129
0.385927 0.476115 0.929000 111 108 112
0.451275 0.425377 0.830000 110 111 103
0.555073 0.442289 0.863000 96 104 97
0.641672 0.442802 0.864000 35 33 21
-0.181831 0.160202 0.311000 118 128 123
-0.384153 0.513060 0.996000 125 123 129
-0.285066 0.513060 0.996000 128 128 129
-0.185605 0.512030 0.994000 122 121 125
-0.086280 0.509454 0.989000 121 122 119
0.012135 0.510484 0.991000 114 119 122
0.110725 0.510484 0.991000 125 131 131
0.208681 0.508939 0.988000 132 138 137
0.307283 0.509454 0.989000 122 123 120
0.374910 0.470820 0.914000 111 114 106
0.433552 0.433731 0.842000 118 124 123
0.531449 0.445579 0.865000 100 105 101
0.626070 0.451760 0.877000 34 35 22
0.652317 0.413126 0.802000 55 56 43
-0.412007 0.514632 0.994000 121 134 133
-0.312489 0.513596 0.992000 114 111 115
-0.213153 0.512043 0.989000 128 127 131
-0.114762 0.512043 0.989000 120 126 126
-0.016355 0.511525 0.988000 121 127 126
0.081937 0.511525 0.988000 120 116 117
0.180228 0.511525 0.988000 126 130 130
0.277956 0.510490 0.986000 128 134 127
0.361294 0.464929 0.898000 122 124 118
0.428050 0.441631 0.853000 120 126 119
0.520728 0.448361 0.866000 105 104 101
0.632817 0.462340 0.893000 37 41 30
0.646501 0.414191 0.800000 100 105 90
-0.418547 0.515673 0.991000 129 138 137
-0.319311 0.514632 0.989000 123 126 129
-0.220250 0.513071 0.986000 121 124 127
-0.122158 0.513071 0.986000 112 112 113
-0.024017 0.512031 0.984000 122 122 122
0.073877 0.512031 0.984000 123 128 131
0.171770 0.512031 0.984000 131 129 129
0.268841 0.510470 0.981000 126 132 125
0.346036 0.462597 0.889000 121 122 119
0.417373 0.444384 0.854000 111 119 107
0.504686 0.446466 0.858000 113 120 116
0.635090 0.478728 0.920000 41 43 32
0.637369 0.419928 0.807000 102 110 98
-0.448319 0.516699 0.988000 122 131 130
-0.348611 0.514607 0.984000 124 129 132
-0.250717 0.514607 0.984000 121 125 124
-0.152358 0.513038 0.981000 117 112 121
-0.054763 0.513038 0.981000 112 115 118
0.042701 0.511469 0.978000 106 110 110
0.139997 0.511469 0.978000 123 129 128
0.235838 0.508331 0.972000 112 113 110
0.333564 0.509900 0.975000 120 125 121
0.377993 0.439821 0.841000 130 132 126
0.457268 0.435638 0.833000 123 126 118
0.590717 0.476430 0.911000 95 95 89
0.646954 0.449235 0.859000 36 39 26
-0.461820 0.484596 0.922000 118 124 123
-0.392006 0.516657 0.983000 123 132 131
-0.294212 0.516657 0.983000 113 117 116
-0.195819 0.515081 0.980000 125 129 129
-0.098023 0.513504 0.977000 107 116 115
-0.000824 0.512453 0.975000 122 122 122
0.096470 0.514029 0.978000 122 134 129
0.193172 0.512453 0.975000 117 117 118
0.289873 0.511927 0.974000 128 128 128
0.346005 0.452009 0.860000 112 113 105
0.425039 0.445177 0.847000 116 118 107
0.538165 0.470405 0.895000 97 104 100
0.661543 0.496159 0.944000 41 39 33
0.636217 0.417846 0.795000 105 106 91
-0.440006 0.518174 0.981000 123 134 133
-0.340317 0.515005 0.975000 121 124 127
-0.243818 0.516062 0.977000 128 126 126
-0.145871 0.513421 0.972000 118 117 121
-0.049272 0.514477 0.974000 118 118 118
0.047431 0.512364 0.970000 121 127 127
0.144228 0.513421 0.972000 127 131 131
0.239440 0.510251 0.966000 118 118 118
0.332764 0.506026 0.958000 121 123 117
0.377094 0.443169 0.839000 121 121 115
0.462209 0.444753 0.842000 128 132 121
0.605630 0.493349 0.934000 87 90 82
0.646196 0.456374 0.864000 36 39 26
-0.489308 0.505349 0.952000 126 135 134
-0.374896 0.515965 0.972000 131 136 139
-0.278769 0.517027 0.974000 127 124 128
-0.181497 0.515965 0.972000 118 122 122
-0.084361 0.513311 0.967000 121 119 119
0.011865 0.514373 0.969000 132 132 133
0.108378 0.514904 0.970000 109 107 107
0.203612 0.511719 0.964000 123 130 126
0.299515 0.511719 0.964000 121 127 126
0.351862 0.449612 0.847000 121 127 126
0.435096 0.448550 0.845000 115 118 110
0.568313 0.491016 0.925000 106 107 99
0.654626 0.486770 0.917000 31 34 21
0.640116 0.417762 0.787000 111 115 97
-0.412217 0.517443 0.970000 118 116 116
-0.316367 0.518510 0.972000 123 123 123
-0.218312 0.515309 0.966000 119 123 122
-0.122336 0.515843 0.967000 111 109 115
-0.026052 0.514242 0.964000 121 125 124
0.069996 0.515309 0.966000 115 119 118
0.166099 0.515309 0.966000 128 134 127
0.261387 0.513709 0.963000 126 133 129
0.325721 0.465165 0.872000 132 131 128
0.397809 0.448628 0.841000 123 120 117
0.506093 0.471567 0.884000 118 123 119
0.641749 0.509441 0.955000 81 90 81
0.632609 0.437426 0.820000 81 95 80
-0.461575 0.518374 0.967000 125 131 130
-0.364995 0.517838 0.966000 124 133 132
-0.268892 0.517838 0.966000 117 123 123
-0.172253 0.516230 0.963000 123 127 126
-0.076290 0.515158 0.961000 117 117 117
0.019356 0.516230 0.963000 113 106 108
0.115160 0.516230 0.963000 122 125 128
0.209869 0.513550 0.958000 115 120 116
0.305175 0.513550 0.958000 127 133 132
0.353662 0.453511 0.846000 120 127 123
0.444554 0.460479 0.859000 105 107 101
0.588645 0.507117 0.946000 95 101 94
0.645950 0.479778 0.895000 35 37 19
0.643013 0.419739 0.783000 96 99 91
-0.423162 0.520367 0.966000 131 131 131
-0.326044 0.518751 0.963000 122 123 120
-0.229762 0.517674 0.961000 123 123 124
-0.133737 0.516058 0.958000 108 113 109
-0.038551 0.517674 0.961000 119 124 120
0.056995 0.517135 0.960000 98 101 104
0.152501 0.517135 0.960000 123 127 126
0.247231 0.515519 0.957000 119 119 119
0.321685 0.484276 0.899000 120 126 119
0.384598 0.453032 0.841000 114 117 109
0.499446 0.483198 0.897000 118 125 116
0.626748 0.514442 0.955000 82 93 85
0.643913 0.458958 0.852000 49 54 34
-0.499479 0.536970 0.992000 119 125 124
-0.387861 0.519649 0.960000 120 126 126
-0.292660 0.520190 0.961000 115 116 113
-0.196439 0.518566 0.958000 120 124 124
-0.101027 0.518025 0.957000 109 113 113
-0.005807 0.516942 0.955000 112 112 112
0.089388 0.518025 0.957000 122 126 126
0.184595 0.518025 0.957000 128 135 131
0.278925 0.516401 0.954000 115 115 115
0.332689 0.459564 0.849000 132 132 132
0.421082 0.463895 0.857000 128 128 122
0.556562 0.509905 0.942000 101 104 96
0.655109 0.513694 0.949000 48 50 39
0.626312 0.429251 0.793000 96 106 94
-0.458711 0.522706 0.961000 120 126 125
-0.361972 0.521074 0.958000 121 131 126
-0.265830 0.519442 0.955000 114 123 122
-0.170643 0.518898 0.954000 122 122 123
-0.075734 0.518898 0.954000 120 124 123
0.019175 0.518898 0.954000 127 125 126
0.114203 0.519442 0.955000 119 128 127
0.208554 0.517810 0.952000 108 108 108
0.302308 0.516179 0.949000 128 128 122
0.354498 0.461243 0.848000 124 124 124
0.460597 0.484088 0.890000 115 119 108
0.586777 0.517267 0.951000 100 106 99
0.652011 0.494966 0.910000 35 38 25
0.635649 0.423713 0.779000 101 105 94
-0.427182 0.523582 0.958000 115 118 121
-0.330836 0.521942 0.955000 117 117 117
-0.234840 0.519756 0.951000 122 123 120
-0.140230 0.519756 0.951000 128 126 126
-0.045763 0.521396 0.954000 118 118 118
0.049146 0.521396 0.954000 121 120 124
0.143602 0.519756 0.951000 119 124 120
0.237711 0.518663 0.949000 116 125 123
0.310074 0.484231 0.886000 124 125 122
0.384285 0.467289 0.855000 121 123 117
0.515939 0.508826 0.931000 110 113 105
0.620326 0.518663 0.949000 85 93 86
0.652979 0.473847 0.867000 64 65 50
-0.516035 0.551351 1.004000 121 130 128
-0.387121 0.522795 0.952000 124 130 129
-0.292411 0.522795 0.952000 116 124 117
-0.197494 0.522246 0.951000 119 120 117
-0.102883 0.522246 0.951000 112 113 110
-0.008255 0.521148 0.949000 116 116 116
0.086065 0.520599 0.948000 121 125 124
0.180377 0.520599 0.948000 126 130 129
0.274689 0.520599 0.948000 121 121 121
0.331245 0.467331 0.851000 126 128 122
0.440964 0.487649 0.888000 119 120 117
0.563878 0.519500 0.946000 104 105 102
0.654514 0.516755 0.941000 50 59 50
0.625694 0.432185 0.787000 93 100 91
-0.445379 0.526391 0.954000 114 123 121
-0.349736 0.525288 0.952000 126 130 129
-0.253954 0.523081 0.948000 113 117 116
-0.159305 0.521977 0.946000 116 114 115
-0.065330 0.523081 0.948000 123 121 121
0.028982 0.523081 0.948000 133 130 134
0.122903 0.521425 0.945000 115 115 115
0.216917 0.521425 0.945000 117 126 124
0.302705 0.507631 0.920000 122 126 125
0.371091 0.477835 0.866000 120 118 112
0.494533 0.514252 0.932000 123 124 116
0.594815 0.520873 0.944000 94 100 93
0.648602 0.490526 0.889000 34 36 25
0.638385 0.424865 0.770000 100 103 88
-0.398324 0.526117 0.949000 125 131 131
-0.303912 0.526117 0.949000 122 127 123
-0.208839 0.524454 0.946000 116 118 112
-0.114726 0.524454 0.946000 110 111 108
-0.020613 0.524454 0.946000 120 124 124
0.073423 0.523899 0.945000 124 124 125
0.167259 0.523345 0.944000 126 127 124
0.260620 0.522236 0.942000 124 122 123
0.323490 0.476776 0.860000 123 130 121
0.427122 0.497843 0.898000 112 118 111
0.541190 0.521682 0.941000 98 96 90
0.633456 0.520573 0.939000 74 80 73
0.637852 0.456818 0.824000 91 89 83
-0.455468 0.528601 0.949000 110 116 115
-0.359915 0.526930 0.946000 126 130 129
-0.265521 0.526373 0.945000 116 116 117
-0.170781 0.524145 0.941000 123 123 123
-0.077166 0.524145 0.941000 119 123 122
0.016450 0.524145 0.941000 123 123 124
0.110065 0.524145 0.941000 107 106 110
0.203681 0.524145 0.941000 125 131 124
0.295717 0.521360 0.936000 115 120 116
0.362248 0.485712 0.872000 120 127 118
0.479378 0.518575 0.931000 120 126 119
0.576914 0.523031 0.939000 95 106 98
0.654626 0.510777 0.917000 36 45 36
0.627103 0.429454 0.771000 98 104 103
-0.423169 0.531086 0.949000 123 132 130
-0.328411 0.530526 0.948000 125 128 120
-0.233111 0.528288 0.944000 123 122 119
-0.138460 0.525490 0.939000 120 119 116
-0.045187 0.527168 0.942000 115 120 116
0.048373 0.525490 0.939000 128 132 131
0.141186 0.523251 0.935000 123 127 126
0.234455 0.523811 0.936000 122 126 125
0.306225 0.489673 0.875000 119 125 118
0.405859 0.505343 0.903000 128 126 120
0.512711 0.522691 0.934000 111 111 111
0.605630 0.522691 0.934000 92 92 86
0.666389 0.498627 0.891000 63 64 56
-0.510353 0.549875 0.978000 119 126 122
-0.393754 0.530759 0.944000 126 135 134
-0.300157 0.531321 0.945000 117 118 115
-0.204835 0.527948 0.939000 124 125 122
-0.111300 0.527386 0.938000 127 125 125
-0.018002 0.527948 0.939000 120 124 124
0.075094 0.525699 0.935000 126 134 127
0.167932 0.525137 0.934000 120 126 125
0.260851 0.525137 0.934000 113 110 107
0.325363 0.482968 0.859000 123 124 121
0.441907 0.519514 0.924000 111 119 112
0.537876 0.523450 0.931000 105 107 101
0.629142 0.522325 0.929000 77 81 80
0.644669 0.466663 0.830000 89 86 76
-0.440711 0.533231 0.944000 125 129 129
-0.347164 0.533795 0.945000 124 123 120
-0.251275 0.529841 0.938000 124 130 129
-0.157285 0.527582 0.934000 123 123 123
-0.064228 0.526452 0.932000 119 118 115
0.028492 0.526452 0.932000 123 121 121
0.121083 0.525887 0.931000 122 122 122
0.213244 0.524758 0.929000 120 126 125
0.298098 0.511766 0.906000 123 130 126
0.389946 0.514025 0.910000 117 118 110
0.489981 0.524193 0.928000 117 119 113
0.582931 0.524758 0.929000 97 104 95
0.655725 0.509506 0.902000 57 63 56
0.629757 0.430425 0.762000 111 112 109
-0.386752 0.532865 0.939000 115 123 125
-0.293335 0.532865 0.939000 114 118 117
-0.198854 0.530027 0.934000 104 103 100
-0.105935 0.530027 0.934000 120 118 119
-0.013015 0.530027 0.934000 116 115 119
0.079390 0.526622 0.928000 123 127 126
0.171713 0.526622 0.928000 126 124 125
0.263466 0.525487 0.926000 116 120 119
0.329477 0.486899 0.858000 129 130 127
0.446745 0.524352 0.924000 116 125 116
0.538670 0.524352 0.924000 100 107 98
0.630594 0.524352 0.924000 72 76 75
0.639632 0.464199 0.818000 88 91 76
-0.433460 0.535323 0.939000 127 133 133
-0.339681 0.534753 0.938000 118 115 119
-0.244788 0.531332 0.932000 121 126 122
-0.151089 0.527912 0.926000 121 121 121
-0.058966 0.527912 0.926000 122 122 122
0.033122 0.527342 0.925000 112 111 108
0.125010 0.526771 0.924000 119 119 119
0.216935 0.526771 0.924000 121 125 124
0.298497 0.509098 0.893000 123 129 128
0.398181 0.523351 0.918000 118 120 114
0.492708 0.526771 0.924000 107 113 106
0.584632 0.526771 0.924000 96 100 89
0.660448 0.514229 0.902000 72 76 65
0.633239 0.432705 0.759000 98 100 94
-0.376548 0.533772 0.932000 112 117 120
-0.283524 0.533199 0.931000 122 122 123
-0.189878 0.530336 0.926000 120 118 118
-0.097754 0.530336 0.926000 114 114 115
-0.005631 0.530336 0.926000 114 117 120
0.086305 0.529190 0.924000 118 115 119
0.177651 0.527472 0.921000 119 125 124
0.268984 0.526900 0.920000 125 124 121
0.335040 0.489673 0.855000 122 123 120
0.451055 0.525754 0.918000 121 123 117
0.542382 0.525754 0.918000 102 111 102
0.633019 0.525181 0.917000 79 85 78
0.626312 0.454165 0.793000 89 90 82
-0.417580 0.535637 0.931000 124 130 130
-0.324959 0.535637 0.931000 102 106 106
-0.230592 0.531610 0.924000 120 125 121
-0.138217 0.529884 0.921000 131 131 132
-0.046591 0.529884 0.921000 116 120 119
0.044986 0.529308 0.920000 124 123 120
0.136067 0.527582 0.917000 124 130 129
0.228038 0.529308 0.920000 116 121 117
0.302545 0.501117 0.871000 124 125 122
0.408857 0.526431 0.915000 122 124 118
0.502618 0.529308 0.920000 102 104 98
0.590915 0.526431 0.915000 89 99 87
0.670019 0.517226 0.899000 73 80 71
-0.453165 0.536918 0.929000 125 133 135
-0.358802 0.534029 0.924000 123 116 118
-0.266011 0.532295 0.921000 108 117 116
-0.173817 0.530561 0.918000 119 119 119
-0.082220 0.528827 0.915000 114 112 112
0.008857 0.531717 0.920000 126 124 124
0.100165 0.530561 0.918000 127 126 123
0.190867 0.528827 0.915000 116 121 117
0.281279 0.527671 0.913000 120 124 124
0.356214 0.505131 0.874000 114 113 110
0.462939 0.527671 0.913000 118 124 117
0.554376 0.528249 0.914000 101 108 99
0.643187 0.526515 0.911000 81 87 86
0.622257 0.445024 0.770000 94 98 87
-0.395786 0.534125 0.920000 126 131 127
-0.304921 0.535286 0.922000 109 109 109
-0.211577 0.531222 0.915000 115 115 116
-0.120812 0.532384 0.917000 116 116 116
-0.029616 0.532964 0.918000 121 114 115
0.061443 0.530642 0.914000 114 114 114
0.151872 0.528900 0.911000 115 116 113
0.243035 0.530061 0.913000 119 126 122
0.314850 0.499872 0.861000 132 133 130
0.423765 0.528900 0.911000 114 116 110
0.514396 0.528900 0.911000 100 108 101
0.604363 0.528320 0.910000 81 93 83
0.680385 0.517289 0.891000 79 85 78
-0.435671 0.541199 0.928000 123 128 131
-0.339648 0.535368 0.918000 108 113 109
-0.247510 0.533618 0.915000 114 109 104
-0.156139 0.532452 0.913000 120 118 119
-0.065166 0.531285 0.911000 118 119 116
0.025465 0.531285 0.911000 110 109 106
0.115969 0.530702 0.910000 127 124 121
0.206727 0.531285 0.911000 118 124 117
0.294421 0.526037 0.902000 121 127 120
0.386286 0.528952 0.907000 118 118 112
0.478095 0.530702 0.910000 101 103 97
0.568002 0.530119 0.909000 97 103 96
0.655536 0.527786 0.905000 73 84 76
0.625291 0.442641 0.759000 104 106 95
-0.381240 0.535428 0.914000 123 116 111
-0.289993 0.534842 0.913000 101 105 105
-0.198291 0.532499 0.909000 105 105 99
-0.107977 0.533084 0.910000 112 113 110
-0.017503 0.534842 0.913000 117 116 113
0.073166 0.533670 0.911000 125 123 124
0.163437 0.532499 0.909000 133 131 131
0.253869 0.532499 0.909000 123 130 126
0.324984 0.502622 0.858000 107 112 108
0.433777 0.531327 0.907000 107 104 101
0.524010 0.531327 0.907000 100 111 103
0.613566 0.530741 0.906000 83 91 84
0.680398 0.513167 0.876000 84 92 80
-0.424689 0.541351 0.920000 117 123 122
-0.329903 0.536055 0.911000 114 120 113
-0.238747 0.534878 0.909000 121 119 113
-0.147989 0.533702 0.907000 129 120 121
-0.057756 0.533702 0.907000 116 116 116
0.032441 0.533113 0.906000 118 116 110
0.122710 0.533702 0.907000 122 126 125
0.212943 0.533702 0.907000 118 118 119
0.297494 0.523698 0.890000 118 118 112
0.391675 0.531348 0.903000 114 116 110
0.483109 0.533113 0.906000 104 110 103
0.571345 0.531348 0.903000 95 101 94
0.658251 0.528994 0.899000 75 88 80
0.631878 0.444261 0.755000 110 106 99
-0.369636 0.537258 0.909000 127 122 117
-0.278589 0.536076 0.907000 116 123 119
-0.187941 0.534894 0.905000 122 121 125
-0.097690 0.533712 0.903000 112 113 110
-0.007890 0.536076 0.907000 104 104 105
0.082343 0.536076 0.907000 127 132 128
0.172386 0.535485 0.906000 119 124 120
0.261650 0.533712 0.903000 118 122 121
0.333969 0.507115 0.858000 120 125 121
0.440343 0.532530 0.901000 106 108 97
0.530567 0.533121 0.902000 102 110 103
0.619615 0.532530 0.901000 75 84 82
0.659659 0.495294 0.838000 90 99 85
-0.415764 0.540825 0.911000 120 124 123
-0.323706 0.538451 0.907000 112 116 116
-0.232443 0.536076 0.903000 121 122 119
-0.142450 0.535482 0.902000 128 128 122
-0.052773 0.536076 0.903000 116 115 112
0.037062 0.536076 0.903000 114 112 106
0.126897 0.536076 0.903000 120 125 121
0.216732 0.536076 0.903000 123 123 123
0.300457 0.525390 0.885000 117 119 113
0.394208 0.533108 0.898000 114 120 113
0.485699 0.535482 0.902000 109 113 102
0.572883 0.533108 0.898000 96 98 92
0.658534 0.530139 0.893000 77 83 76
0.630204 0.447027 0.753000 102 102 91
-0.365640 0.539633 0.905000 128 131 123
-0.274692 0.537844 0.902000 122 128 121
-0.184751 0.537248 0.901000 108 112 112
-0.094799 0.535459 0.898000 117 118 115
-0.005479 0.537248 0.901000 123 124 121
0.084157 0.537248 0.901000 116 116 117
0.173407 0.536055 0.899000 125 131 124
0.262845 0.536055 0.899000 119 119 119
0.336999 0.512800 0.860000 116 117 114
0.440736 0.534862 0.897000 116 120 109
