0.279636 0.227238 0.608000 91 101 96
0.293431 0.196964 0.527000 29 33 32
0.312451 0.178651 0.478000 127 143 141
0.336988 0.167812 0.449000 132 146 149
-1.102745 0.540460 1.436000 20 26 19
-1.031421 0.578472 1.537000 20 30 25
-0.884833 0.579978 1.541000 36 46 41
-0.743198 0.586000 1.557000 37 46 44
-0.593897 0.587505 1.561000 41 50 49
-0.442688 0.587505 1.561000 49 59 61
-0.292972 0.590516 1.569000 60 68 70
-0.142066 0.595032 1.581000 65 73 75
0.011081 0.595032 1.581000 98 105 109
0.165059 0.598043 1.589000 98 105 109
0.321390 0.602560 1.601000 102 107 110
0.314839 0.315017 0.837000 25 26 23
0.290564 0.202108 0.537000 84 93 91
0.308132 0.181784 0.483000 78 89 93
0.332139 0.170117 0.452000 136 150 153
0.352636 0.159579 0.424000 130 145 151
-1.046067 0.579464 1.529000 22 32 27
-0.897957 0.579464 1.529000 36 46 41
-0.759656 0.587044 1.549000 37 46 44
-0.611183 0.588560 1.553000 43 52 51
-0.460748 0.588560 1.553000 49 59 61
-0.311912 0.591592 1.561000 61 69 71
-0.161526 0.594624 1.569000 64 73 72
-0.009566 0.596140 1.573000 98 104 111
0.143533 0.599172 1.581000 96 105 109
0.299682 0.605235 1.597000 105 113 115
0.302051 0.317587 0.838000 25 27 21
0.291426 0.203135 0.536000 86 94 96
0.308756 0.182670 0.482000 82 93 92
0.332585 0.170921 0.451000 137 151 154
0.352912 0.160310 0.423000 145 158 164
-1.046067 0.583467 1.529000 39 50 48
-0.897957 0.583467 1.529000 36 45 43
-0.755732 0.588047 1.541000 37 46 44
-0.608034 0.589573 1.545000 43 52 51
-0.457188 0.588047 1.541000 49 59 61
-0.310313 0.592626 1.553000 60 69 68
-0.160290 0.594152 1.557000 64 73 72
-0.009517 0.597205 1.565000 98 104 111
0.143170 0.601784 1.577000 98 107 111
0.298181 0.606363 1.589000 104 112 114
0.297664 0.319781 0.838000 26 28 22
0.291190 0.203393 0.533000 88 97 96
0.309375 0.183550 0.481000 81 92 90
0.333026 0.171720 0.450000 139 155 158
0.353182 0.161035 0.422000 146 159 165
-1.052005 0.586318 1.526000 33 41 34
-0.901816 0.584781 1.522000 36 45 43
-0.759836 0.589007 1.533000 38 47 45
-0.612934 0.590544 1.537000 43 52 50
-0.462841 0.589007 1.533000 48 58 60
-0.315984 0.592081 1.541000 59 68 67
-0.167578 0.595155 1.549000 62 71 70
-0.017576 0.596692 1.553000 99 107 114
0.133886 0.601302 1.565000 96 105 109
0.287672 0.605913 1.577000 106 111 114
0.280622 0.320054 0.833000 34 35 32
0.282569 0.209783 0.546000 51 55 55
0.301052 0.188267 0.490000 30 36 29
0.326468 0.176356 0.459000 144 160 163
0.345070 0.164061 0.427000 140 158 163
-1.100978 0.593021 1.533000 20 25 21
-0.949996 0.591473 1.529000 37 47 42
-0.798215 0.588766 1.522000 36 47 45
-0.653776 0.591473 1.529000 40 49 47
-0.503351 0.588766 1.522000 45 56 55
-0.356855 0.590313 1.526000 57 68 67
-0.211090 0.596115 1.541000 62 71 70
-0.061818 0.596115 1.541000 99 109 116
0.087908 0.599210 1.549000 98 106 113
0.239799 0.603852 1.561000 104 108 113
0.389005 0.600757 1.553000 102 108 108
0.283715 0.228234 0.590000 41 43 37
0.294647 0.197287 0.510000 21 29 22
0.319089 0.182974 0.473000 142 160 165
0.339449 0.170208 0.440000 138 157 159
-1.102063 0.568604 1.460000 21 28 19
-1.011301 0.598592 1.537000 44 53 51
-0.856244 0.594308 1.526000 39 48 46
-0.702854 0.589635 1.514000 40 49 47
-0.560606 0.594308 1.526000 43 52 50
-0.407647 0.586908 1.507000 57 65 67
-0.264967 0.594308 1.526000 64 73 72
-0.117992 0.598592 1.537000 75 86 85
0.030812 0.597034 1.533000 98 106 113
0.180713 0.601708 1.545000 97 104 108
0.332939 0.606381 1.557000 103 111 113
0.556573 0.597034 1.533000 23 25 19
0.282569 0.212642 0.546000 30 35 31
0.300438 0.190443 0.489000 28 34 27
0.326468 0.178760 0.459000 147 166 168
0.345070 0.166297 0.427000 143 163 163
-1.086232 0.595167 1.518000 36 44 37
-0.939187 0.595167 1.518000 36 48 43
-0.786403 0.590854 1.507000 36 48 43
-0.642124 0.592422 1.511000 40 49 47
-0.494445 0.590854 1.507000 46 55 54
-0.349391 0.592422 1.511000 56 67 66
-0.205040 0.598303 1.526000 62 71 70
-0.057071 0.596735 1.522000 98 108 115
0.090776 0.599479 1.529000 96 105 109
0.242011 0.607321 1.549000 102 106 111
0.390033 0.604184 1.541000 103 109 109
0.560586 0.601048 1.533000 23 25 19
0.282569 0.214072 0.546000 32 34 28
0.300438 0.191724 0.489000 27 33 26
0.327179 0.180353 0.460000 149 168 170
0.345070 0.167415 0.427000 141 161 161
-1.085178 0.596378 1.511000 39 50 42
-0.940676 0.597562 1.514000 36 48 43
-0.786677 0.592036 1.500000 38 48 43
-0.642659 0.593220 1.503000 40 49 47
-0.496075 0.592036 1.500000 45 56 55
-0.351476 0.593220 1.503000 57 68 67
-0.207392 0.597562 1.514000 62 71 70
-0.060615 0.596378 1.511000 101 111 118
0.086149 0.599141 1.518000 99 108 112
0.236727 0.608219 1.541000 98 105 109
0.384997 0.606640 1.537000 101 110 109
0.535230 0.599141 1.518000 26 28 22
0.288545 0.226947 0.575000 32 33 25
0.297645 0.195372 0.495000 21 29 22
0.325347 0.183926 0.466000 146 162 165
0.341866 0.169717 0.430000 142 159 160
-1.094969 0.592785 1.492000 37 52 44
-0.964458 0.601526 1.514000 45 55 50
-0.804297 0.591593 1.489000 38 47 46
-0.661392 0.592785 1.492000 41 50 48
-0.516866 0.592785 1.492000 45 54 52
-0.372341 0.592785 1.492000 57 67 69
-0.229494 0.597155 1.503000 64 73 72
-0.084126 0.598744 1.507000 98 108 115
0.062017 0.600334 1.511000 97 107 114
0.209900 0.604704 1.522000 101 108 112
0.358271 0.606293 1.526000 98 106 108
0.501115 0.600334 1.511000 73 81 83
0.286600 0.236796 0.596000 100 110 105
0.292914 0.201436 0.507000 21 29 22
0.319764 0.188324 0.474000 122 135 141
0.337906 0.174021 0.438000 148 162 165
-1.110367 0.588292 1.471000 40 46 39
-0.991562 0.602690 1.507000 46 55 53
-0.837167 0.596691 1.492000 39 48 47
-0.689391 0.593891 1.485000 38 49 47
-0.548115 0.596691 1.492000 44 53 52
-0.400614 0.592292 1.481000 53 63 65
-0.259064 0.596691 1.492000 60 69 68
-0.115152 0.599890 1.500000 96 103 107
0.030209 0.601090 1.503000 98 108 115
0.176268 0.602690 1.507000 100 107 111
0.324599 0.607089 1.518000 103 108 111
0.470401 0.605489 1.514000 104 110 110
0.617058 0.605489 1.514000 97 106 104
0.287863 0.206762 0.517000 74 80 73
0.311797 0.190765 0.477000 47 53 46
0.333986 0.177967 0.445000 145 161 164
-1.139644 0.593351 1.474000 31 35 34
-1.011740 0.602207 1.496000 44 55 53
-0.869145 0.603817 1.500000 37 46 44
-0.711298 0.593351 1.474000 41 52 50
-0.572758 0.597779 1.485000 44 53 52
-0.427755 0.596169 1.481000 51 61 63
-0.284295 0.596169 1.481000 61 70 68
-0.141595 0.599389 1.489000 84 93 97
0.002652 0.602207 1.496000 103 111 118
0.148256 0.605025 1.503000 98 105 109
0.295411 0.608245 1.511000 100 107 111
0.442655 0.609453 1.514000 104 110 110
0.588144 0.608245 1.511000 23 26 18
0.284612 0.211739 0.526000 31 33 27
0.307494 0.194027 0.482000 31 37 30
0.331405 0.181548 0.451000 131 147 150
0.349309 0.169069 0.420000 118 132 135
-1.024860 0.600046 1.481000 42 56 51
-0.886161 0.603288 1.489000 37 49 44
-0.732957 0.595995 1.471000 38 47 45
-0.590465 0.595995 1.471000 44 53 52
-0.448887 0.597210 1.474000 51 61 63
-0.306936 0.598831 1.478000 58 67 66
-0.163766 0.598831 1.478000 77 87 89
-0.020750 0.603288 1.489000 101 111 118
0.124066 0.606124 1.496000 98 106 113
0.270957 0.610581 1.507000 100 108 110
0.416936 0.610581 1.507000 98 106 108
0.560300 0.607744 1.500000 25 26 18
0.283705 0.218788 0.540000 26 32 25
0.303034 0.197314 0.487000 26 32 25
0.329354 0.185565 0.458000 110 125 126
0.345160 0.171384 0.423000 119 133 136
-1.038216 0.598215 1.467000 47 57 52
-0.902831 0.602700 1.478000 43 55 50
-0.754007 0.598215 1.467000 39 48 46
-0.608983 0.595360 1.460000 43 52 50
-0.469799 0.598215 1.467000 49 60 59
-0.329259 0.601069 1.474000 57 68 67
-0.186097 0.599846 1.471000 64 73 72
-0.043813 0.602700 1.478000 101 111 118
0.099827 0.605555 1.485000 94 103 107
0.246136 0.611671 1.500000 100 108 110
0.390393 0.610040 1.496000 100 105 108
0.532802 0.607186 1.489000 39 40 32
0.295105 0.237329 0.582000 38 39 36
0.301052 0.199813 0.490000 23 29 22
0.328602 0.188395 0.462000 97 110 109
0.343454 0.173307 0.425000 120 135 136
-1.043758 0.600824 1.464000 46 55 53
-0.906257 0.603697 1.471000 44 54 49
-0.758054 0.599183 1.460000 40 49 48
-0.613672 0.596310 1.453000 41 50 48
-0.475202 0.599183 1.460000 49 60 59
-0.335376 0.602055 1.467000 59 68 67
-0.192877 0.600824 1.464000 69 78 77
-0.051412 0.604928 1.474000 100 110 117
0.091618 0.606570 1.478000 99 108 112
0.236535 0.611084 1.489000 101 110 114
0.380770 0.611084 1.489000 103 108 111
0.522184 0.607801 1.481000 48 48 42
0.296072 0.242135 0.590000 82 94 89
0.298246 0.203558 0.496000 20 26 19
0.327441 0.192477 0.469000 84 94 89
0.341071 0.176061 0.429000 120 135 136
-1.052373 0.603005 1.460000 46 56 51
-0.913443 0.604657 1.464000 43 54 52
-0.765832 0.600114 1.453000 42 48 47
-0.623793 0.598875 1.450000 41 50 48
-0.483336 0.598875 1.450000 52 61 59
-0.345243 0.603005 1.460000 60 69 68
-0.203817 0.603005 1.460000 65 74 73
-0.062562 0.604657 1.464000 101 111 118
0.079793 0.608787 1.474000 91 101 108
0.223632 0.611678 1.481000 102 111 115
0.367092 0.611678 1.481000 102 107 110
0.508139 0.608787 1.474000 56 54 54
0.649597 0.607548 1.471000 103 109 108
0.296131 0.206096 0.499000 20 26 19
0.326519 0.195357 0.473000 52 60 53
0.339276 0.178010 0.431000 119 134 135
-1.063840 0.606827 1.460000 48 59 51
-0.920519 0.605580 1.457000 43 54 52
-0.771894 0.599761 1.443000 39 45 44
-0.632115 0.599761 1.443000 40 49 47
-0.492336 0.599761 1.443000 51 60 59
-0.354267 0.602671 1.450000 57 66 65
-0.214842 0.605580 1.457000 67 76 75
-0.073858 0.606827 1.460000 100 110 117
0.068077 0.611399 1.471000 100 110 117
0.210569 0.611399 1.471000 102 109 113
0.354740 0.614309 1.478000 99 104 107
0.494204 0.609737 1.467000 81 87 86
0.638043 0.611399 1.471000 105 114 112
0.294694 0.208233 0.501000 20 27 18
0.324727 0.197011 0.474000 40 48 41
0.338583 0.179970 0.433000 119 133 136
-1.073098 0.609395 1.457000 48 58 53
-0.929404 0.607722 1.453000 45 56 54
-0.779428 0.600611 1.436000 39 45 44
-0.640327 0.600611 1.436000 43 52 50
-0.501226 0.600611 1.436000 53 62 61
-0.363133 0.602284 1.440000 58 67 66
-0.225198 0.606467 1.450000 64 73 71
-0.084741 0.606467 1.450000 96 104 111
0.056370 0.613577 1.467000 99 109 116
0.197527 0.610650 1.460000 101 108 112
0.341507 0.615250 1.471000 99 104 107
0.481695 0.612323 1.464000 98 104 103
0.624787 0.613577 1.467000 105 115 110
0.293968 0.209963 0.502000 20 27 18
0.324169 0.198670 0.475000 37 44 35
0.337449 0.181104 0.433000 117 131 134
-1.073956 0.611526 1.453000 46 56 51
-0.931281 0.610263 1.450000 46 57 55
-0.779916 0.601846 1.430000 39 48 46
-0.641396 0.601846 1.430000 43 52 50
-0.501469 0.600162 1.426000 52 61 60
-0.365120 0.603108 1.433000 58 67 66
-0.227889 0.607317 1.443000 64 73 71
-0.088109 0.607317 1.443000 94 104 111
0.052279 0.614472 1.460000 103 113 120
0.193307 0.613209 1.457000 101 108 112
0.336049 0.616155 1.464000 100 105 108
0.475578 0.613209 1.457000 102 111 110
0.617983 0.614472 1.460000 107 117 112
0.293237 0.211698 0.503000 20 27 18
0.324285 0.200756 0.477000 35 42 33
0.337869 0.183079 0.435000 108 124 127
-1.075534 0.614059 1.450000 50 60 55
-0.933142 0.612789 1.447000 46 57 55
-0.779823 0.602625 1.423000 45 54 52
-0.641981 0.602625 1.423000 43 52 50
-0.501659 0.599661 1.416000 53 62 61
-0.366297 0.602625 1.423000 55 64 63
-0.230543 0.608130 1.436000 65 74 72
-0.091441 0.608130 1.436000 100 110 117
0.048224 0.615330 1.453000 99 109 116
0.188972 0.615330 1.453000 101 108 112
0.330628 0.617024 1.457000 101 109 111
0.469497 0.614059 1.450000 100 111 110
0.611216 0.615330 1.453000 105 114 112
0.291404 0.215556 0.509000 25 28 20
0.321298 0.203275 0.480000 33 39 32
0.336378 0.185912 0.439000 99 111 113
-1.088462 0.616577 1.447000 53 60 56
-0.948295 0.616577 1.447000 45 57 52
-0.790816 0.603368 1.416000 48 59 58
-0.652267 0.602089 1.413000 43 52 50
-0.513205 0.599533 1.407000 50 61 60
-0.379324 0.603368 1.416000 55 64 63
-0.243870 0.607629 1.426000 62 71 70
-0.106034 0.609333 1.430000 98 108 115
0.032781 0.614873 1.443000 99 109 116
0.173039 0.616577 1.447000 98 104 111
0.313205 0.616577 1.447000 101 109 111
0.453372 0.616577 1.447000 105 114 113
0.593539 0.616577 1.447000 97 107 102
0.289101 0.218167 0.512000 25 28 20
0.318851 0.205384 0.482000 27 33 26
0.335206 0.188339 0.442000 67 78 77
-1.096787 0.618651 1.443000 53 61 54
-0.959660 0.620365 1.447000 43 55 50
-0.798539 0.604503 1.410000 46 55 54
-0.658670 0.601502 1.403000 44 53 51
-0.521648 0.600215 1.400000 51 62 61
-0.387964 0.603216 1.407000 59 68 67
-0.253282 0.607075 1.416000 61 70 69
-0.116692 0.610076 1.423000 103 113 120
0.021343 0.615649 1.436000 96 106 113
0.161227 0.618651 1.443000 96 104 111
0.300380 0.617364 1.440000 100 108 110
0.439869 0.617364 1.440000 107 116 115
0.577748 0.615649 1.436000 40 44 43
0.287307 0.221222 0.516000 21 28 19
0.316373 0.207503 0.484000 24 30 23
0.333986 0.190783 0.445000 58 67 65
-1.098985 0.619409 1.436000 54 62 55
-0.962558 0.621134 1.440000 43 54 52
-0.800206 0.603881 1.400000 46 55 53
-0.663168 0.602587 1.397000 41 50 48
-0.526711 0.601293 1.394000 48 59 58
-0.393364 0.603881 1.400000 53 64 63
-0.259591 0.608194 1.410000 64 73 72
-0.123881 0.612507 1.420000 99 109 116
0.013728 0.615096 1.426000 99 109 116
0.152606 0.618115 1.433000 96 104 111
0.291417 0.618115 1.433000 104 112 114
0.430227 0.618115 1.433000 108 117 116
0.567847 0.616821 1.430000 33 35 29
0.287307 0.222573 0.516000 21 28 19
0.317680 0.209633 0.486000 21 29 22
0.333986 0.191948 0.445000 58 67 66
-1.094393 0.620565 1.430000 55 63 56
-0.955873 0.620565 1.430000 43 54 52
-0.795062 0.603640 1.391000 47 56 54
-0.660320 0.603640 1.391000 40 49 47
-0.524444 0.602338 1.388000 47 60 59
-0.390835 0.603640 1.391000 55 66 65
-0.257750 0.607546 1.400000 65 74 73
-0.123009 0.611885 1.410000 101 111 118
0.013670 0.616225 1.420000 99 109 116
0.151861 0.618829 1.426000 96 105 109
0.289993 0.618829 1.426000 104 112 114
0.428126 0.618829 1.426000 107 116 115
0.563876 0.616225 1.420000 32 34 28
0.288098 0.223490 0.515000 24 27 19
0.318952 0.210905 0.486000 22 30 23
0.334398 0.192679 0.444000 60 69 68
-1.083023 0.619943 1.420000 56 64 57
-0.945471 0.619943 1.420000 45 54 52
-0.787438 0.604226 1.384000 48 57 55
-0.653373 0.604226 1.384000 43 52 50
-0.518184 0.602916 1.381000 48 61 60
-0.385245 0.604226 1.384000 56 67 66
-0.252451 0.607282 1.391000 64 73 72
-0.118471 0.611211 1.400000 101 111 118
0.017302 0.616887 1.413000 99 109 116
0.154939 0.619943 1.420000 98 105 109
0.291667 0.618196 1.416000 104 109 112
0.430042 0.619943 1.420000 106 112 111
0.564795 0.616887 1.413000 33 36 28
0.289665 0.223965 0.513000 24 28 17
0.321497 0.212178 0.486000 22 30 23
0.335206 0.192968 0.442000 84 95 93
-1.068013 0.619268 1.410000 56 62 55
-0.929449 0.617951 1.407000 50 59 57
-0.776809 0.605214 1.378000 50 59 57
-0.643326 0.605214 1.378000 43 52 50
-0.508733 0.603896 1.375000 50 61 60
-0.376360 0.605214 1.378000 55 66 65
-0.244639 0.609606 1.388000 73 82 81
-0.110664 0.612241 1.394000 94 104 111
0.024596 0.617951 1.407000 99 109 116
0.161231 0.619268 1.410000 96 103 107
0.297180 0.617951 1.407000 102 107 110
0.435321 0.620586 1.413000 111 117 116
0.568145 0.616194 1.403000 35 42 33
0.293820 0.221355 0.504000 21 28 19
0.326325 0.210815 0.480000 26 35 26
0.337092 0.190612 0.434000 86 100 95
-1.040672 0.619867 1.403000 54 60 53
-0.897029 0.614565 1.391000 46 56 51
-0.750231 0.604845 1.369000 51 60 58
-0.620326 0.607496 1.375000 43 54 52
-0.486071 0.606171 1.372000 52 63 62
-0.353942 0.607496 1.375000 59 65 65
-0.222194 0.611472 1.384000 85 99 102
-0.088385 0.613240 1.388000 97 107 114
0.046565 0.619867 1.403000 94 103 112
0.182989 0.621634 1.407000 102 109 113
0.317693 0.618542 1.400000 102 108 108
0.454278 0.619867 1.403000 105 111 111
0.587659 0.617216 1.397000 95 95 89
0.296131 0.220466 0.499000 21 27 20
0.327900 0.209862 0.475000 28 35 26
0.338488 0.189981 0.430000 81 92 90
-1.021592 0.620873 1.397000 51 57 50
-0.874215 0.612429 1.378000 44 54 49
-0.732669 0.605763 1.363000 48 59 57
-0.604605 0.609763 1.372000 42 53 52
-0.471703 0.609763 1.372000 51 62 61
-0.338061 0.608429 1.369000 60 66 66
-0.206800 0.612429 1.378000 94 107 113
-0.073477 0.613763 1.381000 101 111 118
0.061126 0.622207 1.400000 97 110 116
0.196318 0.620873 1.397000 101 109 111
0.330930 0.619540 1.394000 102 108 108
0.466965 0.620873 1.397000 109 115 115
0.599702 0.618207 1.391000 126 127 114
0.300843 0.220439 0.496000 21 28 19
0.329194 0.207995 0.468000 28 35 26
0.340116 0.188884 0.425000 81 90 89
-1.002638 0.621849 1.391000 49 57 50
-0.852297 0.610672 1.366000 48 60 55
-0.713652 0.605308 1.354000 49 60 59
-0.587656 0.610672 1.366000 44 55 54
-0.454336 0.609331 1.363000 52 61 60
-0.322306 0.609331 1.363000 61 67 67
-0.191951 0.614696 1.375000 100 111 115
-0.058759 0.614696 1.375000 101 111 118
0.075787 0.625872 1.400000 96 106 113
0.210042 0.621849 1.391000 98 106 108
0.344041 0.620507 1.388000 100 106 106
0.479526 0.621849 1.391000 105 111 110
0.611177 0.618719 1.384000 115 114 97
0.313682 0.224420 0.502000 26 28 22
0.331275 0.205197 0.459000 31 37 30
0.343811 0.187762 0.420000 72 85 84
-0.967391 0.616947 1.372000 51 61 56
-0.823541 0.608852 1.354000 47 61 56
-0.690849 0.607503 1.351000 49 60 59
-0.564955 0.612899 1.363000 51 62 61
-0.431020 0.610202 1.357000 57 66 65
-0.299571 0.610202 1.357000 59 68 67
-0.169609 0.615598 1.369000 103 113 120
-0.036917 0.614249 1.366000 99 109 116
0.097569 0.628188 1.397000 93 101 108
0.230725 0.622343 1.384000 100 108 110
0.363208 0.619645 1.378000 105 111 110
0.497772 0.620994 1.381000 80 84 84
0.627430 0.616947 1.372000 94 92 80
0.322882 0.225734 0.502000 22 30 18
0.333026 0.202351 0.450000 73 88 80
0.348161 0.187062 0.416000 75 86 84
-0.931946 0.613754 1.357000 48 59 57
-0.793418 0.608327 1.345000 50 61 59
-0.664611 0.609684 1.348000 51 62 61
-0.537600 0.613754 1.357000 49 60 58
-0.405253 0.612397 1.354000 53 64 63
-0.274095 0.612397 1.354000 68 77 76
-0.143887 0.616468 1.363000 100 110 117
-0.011857 0.616468 1.363000 98 108 115
0.121495 0.623252 1.378000 99 108 112
0.254978 0.623252 1.378000 96 104 106
0.387616 0.621895 1.375000 100 106 106
0.519672 0.620538 1.372000 40 40 34
0.289446 0.232928 0.515000 26 30 19
0.326155 0.223882 0.495000 22 28 21
0.334804 0.200363 0.443000 95 111 108
-1.039775 0.615942 1.354000 56 62 55
-0.900564 0.610483 1.342000 48 57 55
-0.770568 0.610483 1.342000 50 61 60
-0.642004 0.611848 1.345000 49 59 61
-0.512859 0.613213 1.348000 52 63 61
-0.383133 0.614577 1.351000 57 66 65
-0.251706 0.613213 1.348000 87 95 97
-0.122207 0.618672 1.360000 93 103 110
0.009532 0.618672 1.360000 101 111 118
0.142206 0.622766 1.369000 99 108 112
0.274818 0.622766 1.369000 94 102 104
0.408322 0.624130 1.372000 103 109 108
0.538856 0.621401 1.366000 36 38 27
0.293887 0.232457 0.511000 29 32 24
0.327931 0.221994 0.488000 23 29 22
0.335990 0.198794 0.437000 72 82 84
-1.012712 0.618114 1.351000 53 61 54
-0.868137 0.608506 1.330000 50 60 55
-0.744307 0.612624 1.339000 52 63 61
-0.614602 0.612624 1.339000 48 59 58
-0.485983 0.613997 1.342000 50 61 60
-0.355191 0.612624 1.339000 59 68 67
-0.227002 0.616742 1.348000 96 105 109
-0.096854 0.619487 1.354000 97 109 117
0.034456 0.622232 1.360000 101 111 118
0.166928 0.624977 1.366000 94 104 106
0.297935 0.622232 1.360000 93 101 103
0.431570 0.624977 1.366000 106 112 111
0.561413 0.622232 1.360000 35 37 26
0.296152 0.232422 0.508000 31 34 26
0.328364 0.220984 0.483000 22 29 20
0.337092 0.198565 0.434000 67 77 79
-0.997651 0.618890 1.345000 50 57 53
-0.854467 0.609688 1.325000 44 55 53
-0.730502 0.613369 1.333000 51 62 60
-0.601378 0.613369 1.333000 48 59 58
-0.473317 0.614749 1.336000 50 61 60
-0.343130 0.613369 1.333000 60 66 65
-0.215933 0.618890 1.345000 99 108 112
-0.085838 0.620271 1.348000 94 106 114
0.045038 0.624412 1.357000 96 109 115
0.177267 0.627173 1.363000 99 109 111
0.307935 0.624412 1.357000 95 104 103
0.440355 0.625793 1.360000 106 112 111
0.569571 0.623032 1.354000 40 42 31
0.297778 0.231911 0.504000 83 92 78
0.330095 0.220868 0.480000 24 31 22
0.337363 0.197861 0.430000 69 78 77
-0.982684 0.619635 1.339000 46 56 51
-0.842149 0.611768 1.322000 51 62 61
-0.717332 0.614545 1.328000 52 63 61
-0.586032 0.611768 1.322000 48 57 55
-0.460745 0.615470 1.330000 54 63 62
-0.331413 0.614545 1.328000 61 67 66
-0.204453 0.619635 1.339000 99 108 112
-0.074915 0.621023 1.342000 85 95 102
0.055573 0.626577 1.354000 101 111 118
0.187558 0.629353 1.360000 94 102 104
0.315776 0.622412 1.345000 98 104 104
0.448052 0.625188 1.351000 106 112 111
0.577634 0.623800 1.348000 42 44 33
0.306908 0.234156 0.506000 85 93 81
0.331304 0.217960 0.471000 24 31 22
0.338515 0.195747 0.423000 67 77 79
-0.945980 0.615229 1.322000 55 62 58
-0.816066 0.613833 1.319000 48 61 59
-0.688298 0.613833 1.319000 52 63 61
-0.559255 0.612437 1.316000 50 59 57
-0.434731 0.616625 1.325000 55 64 63
-0.307076 0.618022 1.328000 66 75 73
-0.179511 0.621745 1.336000 91 99 106
-0.049872 0.618952 1.330000 99 109 116
0.080208 0.628725 1.351000 95 104 108
0.211545 0.630121 1.354000 96 104 106
0.339665 0.624537 1.342000 97 103 103
0.471761 0.627329 1.348000 105 111 110
0.600997 0.625933 1.345000 42 44 33
0.323568 0.241996 0.520000 84 92 85
0.332950 0.215470 0.463000 27 33 26
0.341080 0.194528 0.418000 70 83 82
-0.913316 0.610734 1.305000 53 63 58
-0.793538 0.615882 1.316000 51 64 62
-0.663530 0.613542 1.311000 55 66 64
-0.538583 0.615882 1.316000 50 60 55
-0.412043 0.617286 1.319000 58 67 66
-0.285569 0.620094 1.325000 88 97 101
-0.157576 0.621498 1.328000 91 103 111
-0.028871 0.620094 1.325000 103 111 118
0.100754 0.628050 1.342000 96 103 107
0.231266 0.629454 1.345000 98 103 106
0.359939 0.626646 1.339000 90 99 98
0.489645 0.626646 1.339000 103 109 108
0.620737 0.628050 1.342000 43 44 31
0.327455 0.236338 0.505000 27 29 23
0.334637 0.210130 0.449000 87 99 94
-1.017505 0.623563 1.325000 54 62 55
-0.868353 0.608974 1.294000 52 61 59
-0.752768 0.616975 1.311000 48 59 57
-0.624343 0.615563 1.308000 50 59 57
-0.498782 0.616975 1.311000 54 63 61
-0.372357 0.617916 1.313000 60 66 65
-0.246851 0.622151 1.322000 99 108 112
-0.118792 0.622151 1.322000 93 103 110
0.009287 0.623563 1.325000 100 108 115
0.138779 0.628740 1.336000 95 104 108
0.267591 0.627328 1.333000 95 100 103
0.402786 0.625916 1.330000 100 106 105
0.532818 0.627328 1.333000 40 41 33
0.293312 0.240013 0.510000 86 95 86
0.332353 0.220718 0.469000 24 31 22
0.339119 0.198128 0.421000 72 85 84
-0.913658 0.610942 1.291000 51 61 56
-0.797154 0.617567 1.305000 51 63 58
-0.666631 0.613782 1.297000 50 61 59
-0.539743 0.612362 1.294000 48 59 57
-0.416959 0.616148 1.302000 55 64 63
-0.292178 0.618987 1.308000 87 96 100
-0.166488 0.622773 1.316000 88 102 105
-0.038863 0.620407 1.311000 106 114 121
0.089273 0.628452 1.328000 100 107 111
0.218241 0.629398 1.330000 98 106 108
0.347857 0.630818 1.333000 94 103 102
0.475907 0.629398 1.330000 104 110 109
0.604741 0.629398 1.330000 43 44 31
0.329947 0.232357 0.491000 22 29 20
0.336759 0.207276 0.438000 74 83 81
-0.971397 0.620984 1.305000 55 66 58
-0.835921 0.614322 1.291000 52 62 57
-0.714169 0.617177 1.297000 53 64 62
-0.585810 0.614322 1.291000 54 61 57
-0.462896 0.617177 1.297000 55 64 63
-0.335699 0.614322 1.291000 67 73 73
-0.214233 0.624791 1.313000 94 103 107
-0.087046 0.624791 1.313000 97 107 114
0.040232 0.626218 1.316000 101 109 116
0.168856 0.630501 1.325000 95 103 105
0.290924 0.617177 1.297000 93 102 101
0.423627 0.627646 1.319000 99 105 104
0.552649 0.629073 1.322000 40 42 31
0.326098 0.241256 0.507000 38 46 39
0.334506 0.215084 0.452000 36 42 41
0.346487 0.197002 0.414000 99 110 108
-0.867654 0.611482 1.278000 53 63 58
-0.751424 0.617702 1.291000 51 62 60
-0.624913 0.616267 1.288000 50 59 57
-0.502478 0.619137 1.294000 55 64 62
-0.378006 0.620573 1.297000 59 68 66
-0.253342 0.622965 1.302000 94 104 106
-0.126733 0.620573 1.297000 91 99 106
-0.001100 0.622965 1.302000 105 113 120
0.125885 0.627271 1.311000 97 105 107
0.253264 0.628228 1.313000 91 96 99
0.386735 0.627271 1.311000 96 105 103
0.516863 0.631099 1.319000 95 105 100
0.464979 0.417224 0.872000 98 110 100
0.333581 0.224401 0.469000 26 29 21
0.340221 0.201435 0.421000 84 100 97
-0.905673 0.613384 1.275000 50 62 57
-0.788915 0.618676 1.286000 52 63 61
-0.660211 0.614828 1.278000 50 61 59
-0.536415 0.614828 1.278000 51 61 56
-0.414233 0.617233 1.283000 59 65 65
-0.290630 0.618676 1.286000 90 100 107
-0.167092 0.622525 1.294000 90 103 109
-0.041746 0.622525 1.294000 102 110 117
0.084504 0.629260 1.308000 102 109 113
0.211207 0.629260 1.308000 96 104 106
0.347074 0.639844 1.330000 94 103 102
0.469824 0.631666 1.313000 98 104 103
0.598375 0.633109 1.316000 43 43 32
0.328603 0.235251 0.489000 27 30 22
0.337528 0.211197 0.439000 92 104 106
-0.965487 0.623011 1.288000 58 68 63
-0.830279 0.615271 1.272000 53 63 58
-0.708731 0.616722 1.275000 51 62 60
-0.586603 0.618174 1.278000 50 57 53
-0.462806 0.618174 1.278000 55 64 62
-0.337419 0.615271 1.272000 67 78 76
-0.217403 0.624462 1.291000 94 105 109
-0.092562 0.625913 1.294000 95 104 108
0.032632 0.623011 1.288000 99 103 108
0.158741 0.628331 1.299000 94 102 104
0.282162 0.623011 1.288000 92 98 98
0.413803 0.628331 1.299000 97 103 103
0.540879 0.629782 1.302000 93 104 96
0.483068 0.425659 0.880000 102 111 102
0.334405 0.222504 0.460000 26 33 24
0.343539 0.201705 0.417000 102 117 118
-0.879919 0.613738 1.262000 51 64 56
-0.765477 0.620060 1.275000 50 61 59
-0.637943 0.616170 1.267000 49 60 58
-0.517246 0.618601 1.272000 52 61 59
-0.395890 0.621519 1.278000 59 68 67
-0.272093 0.621519 1.278000 89 99 106
-0.148297 0.621519 1.278000 93 104 108
-0.024597 0.623951 1.283000 96 106 113
0.100538 0.629301 1.294000 101 108 112
0.225361 0.627842 1.291000 89 97 99
0.355845 0.637568 1.311000 98 104 104
0.478418 0.631732 1.299000 97 103 102
0.607040 0.634650 1.305000 88 98 86
0.332845 0.235380 0.484000 25 28 20
0.338932 0.210091 0.432000 104 119 120
-0.936843 0.621932 1.272000 52 64 59
-0.810430 0.619487 1.267000 52 64 59
-0.684985 0.617042 1.262000 50 61 59
-0.564968 0.619487 1.267000 53 60 56
-0.442238 0.619487 1.267000 55 64 63
-0.318246 0.617042 1.262000 82 94 96
-0.198795 0.625843 1.280000 100 111 115
-0.074981 0.627310 1.283000 100 111 115
0.049185 0.625843 1.280000 96 103 107
0.174257 0.629755 1.288000 93 100 104
0.280217 0.590150 1.207000 92 98 98
0.423787 0.629755 1.288000 95 99 98
0.549829 0.631221 1.291000 95 106 98
0.489980 0.430267 0.880000 99 107 100
0.336128 0.220512 0.451000 31 39 32
-0.980135 0.625262 1.272000 57 66 57
-0.844794 0.616414 1.254000 51 63 58
-0.723322 0.616414 1.254000 50 63 61
-0.605690 0.620346 1.262000 50 56 55
-0.483444 0.620346 1.262000 53 59 58
-0.362629 0.622804 1.267000 64 70 69
-0.240845 0.625262 1.272000 91 101 108
-0.117445 0.624279 1.270000 93 102 106
0.005585 0.625262 1.272000 100 108 115
0.129610 0.629194 1.280000 98 106 108
0.253600 0.629194 1.280000 89 95 95
0.383692 0.628211 1.278000 98 102 101
0.510665 0.632144 1.286000 95 101 100
0.455848 0.428639 0.872000 102 110 103
0.334113 0.237914 0.484000 22 29 20
0.338488 0.211370 0.430000 113 130 131
-0.923972 0.622168 1.259000 55 66 58
-0.800742 0.621179 1.257000 52 64 59
-0.676280 0.618708 1.252000 49 60 58
-0.557218 0.621179 1.257000 53 60 56
-0.436149 0.622168 1.259000 54 63 61
-0.312946 0.619697 1.254000 91 103 105
-0.193459 0.626121 1.267000 93 103 110
-0.071008 0.628592 1.272000 96 105 109
0.052125 0.627604 1.270000 95 105 107
0.176250 0.631557 1.278000 95 102 106
0.277977 0.585104 1.184000 93 99 98
0.427857 0.632545 1.280000 98 103 99
0.553140 0.634028 1.283000 98 106 99
0.483166 0.432898 0.876000 96 104 97
0.336605 0.234734 0.475000 22 29 20
0.340730 0.209036 0.423000 114 130 133
-0.887204 0.620496 1.249000 48 60 55
-0.766217 0.620496 1.249000 54 64 59
-0.644197 0.619502 1.247000 51 60 58
-0.526341 0.622980 1.254000 51 61 56
-0.404870 0.622980 1.254000 61 67 66
-0.284077 0.624470 1.257000 92 103 107
-0.162573 0.625464 1.259000 98 107 111
-0.040875 0.629438 1.267000 101 110 114
0.082178 0.631922 1.272000 94 104 106
0.205071 0.630928 1.270000 91 100 99
0.305358 0.587211 1.182000 93 99 98
0.453955 0.634903 1.278000 97 101 100
0.578655 0.635896 1.280000 104 112 105
0.504919 0.440160 0.886000 95 103 96
0.336823 0.231009 0.465000 23 30 21
0.343269 0.207660 0.418000 116 130 133
-0.859471 0.620270 1.242000 52 64 59
-0.739162 0.620270 1.242000 59 69 64
-0.621344 0.622767 1.247000 50 59 57
-0.499346 0.621269 1.244000 52 61 59
-0.381280 0.625264 1.252000 64 70 69
-0.260002 0.625264 1.252000 90 104 107
-0.138946 0.626263 1.254000 96 104 111
-0.017544 0.628760 1.259000 98 106 113
0.104909 0.631756 1.265000 97 105 107
0.226906 0.630258 1.262000 86 95 94
0.330063 0.595799 1.193000 95 102 98
0.475134 0.635252 1.272000 98 103 99
0.599761 0.636750 1.275000 105 112 108
0.511156 0.433989 0.869000 95 104 95
0.338163 0.224236 0.449000 33 36 28
-0.936973 0.621011 1.237000 55 67 57
-0.818470 0.622015 1.239000 57 69 64
-0.695633 0.619505 1.234000 50 61 59
-0.579833 0.623521 1.242000 46 58 53
-0.458414 0.622015 1.239000 54 64 59
-0.339215 0.623521 1.242000 89 101 103
-0.220140 0.627036 1.249000 96 106 113
-0.099153 0.627036 1.249000 96 104 111
0.021886 0.628542 1.252000 99 109 111
0.143736 0.631052 1.257000 95 103 105
0.255571 0.607456 1.210000 91 97 97
0.387876 0.632056 1.259000 98 103 99
0.512261 0.635068 1.265000 97 102 98
0.455645 0.439778 0.876000 109 117 110
0.333803 0.246497 0.491000 33 41 29
0.337869 0.218383 0.435000 84 96 91
-0.904157 0.621727 1.232000 57 66 64
-0.788002 0.624250 1.237000 53 63 58
-0.665476 0.621727 1.232000 51 62 60
-0.548353 0.624250 1.237000 52 62 57
-0.429221 0.625259 1.239000 55 65 60
-0.308703 0.624250 1.237000 89 100 104
-0.189947 0.627782 1.244000 96 105 109
-0.069891 0.631819 1.252000 105 114 118
0.051181 0.629296 1.247000 98 108 110
0.173354 0.634343 1.257000 95 103 105
0.271638 0.583878 1.157000 90 96 95
0.420194 0.639389 1.267000 95 100 96
0.540782 0.636866 1.262000 99 105 98
0.475742 0.441567 0.875000 95 102 93
0.337479 0.241222 0.478000 22 30 23
0.340426 0.213971 0.424000 120 131 130
-0.868364 0.622416 1.227000 54 64 59
-0.749508 0.622416 1.227000 55 67 62
-0.631680 0.623430 1.229000 50 58 51
-0.513882 0.624952 1.232000 50 57 53
-0.395182 0.625966 1.234000 61 70 68
-0.276765 0.628503 1.239000 96 107 111
-0.156747 0.628503 1.239000 99 108 112
-0.036876 0.631039 1.244000 101 110 114
0.083626 0.631039 1.244000 101 109 111
0.204950 0.633575 1.249000 93 102 101
0.300885 0.584878 1.153000 92 97 93
0.454879 0.640170 1.262000 95 102 98
0.574839 0.637634 1.257000 101 106 102
0.506666 0.448931 0.885000 98 105 96
0.338767 0.236386 0.466000 23 29 22
0.342715 0.211023 0.416000 122 135 134
-0.839232 0.623078 1.222000 57 66 64
-0.719091 0.621549 1.219000 55 66 64
-0.603475 0.624098 1.224000 51 61 56
-0.482928 0.621549 1.219000 54 61 57
-0.367840 0.626648 1.229000 83 95 97
-0.249803 0.629197 1.234000 87 98 102
-0.130058 0.628177 1.232000 98 107 111
-0.010778 0.631747 1.239000 100 109 113
0.109240 0.631747 1.239000 97 105 107
0.229814 0.633276 1.242000 91 97 96
0.326161 0.589936 1.157000 90 97 93
0.476113 0.640924 1.257000 98 102 101
0.595497 0.638375 1.252000 102 110 103
0.518158 0.447168 0.877000 100 106 99
0.341345 0.233527 0.458000 24 30 23
-0.917409 0.618590 1.207000 55 66 58
-0.808449 0.624740 1.219000 59 69 64
-0.686404 0.621153 1.212000 48 59 57
-0.572287 0.624740 1.219000 53 60 56
-0.452343 0.622178 1.214000 57 63 56
-0.336125 0.624740 1.219000 96 106 108
-0.219475 0.628840 1.227000 94 103 107
-0.100619 0.628840 1.227000 99 108 112
0.018341 0.632428 1.234000 96 106 108
0.138210 0.633965 1.237000 93 102 101
0.246979 0.606803 1.184000 93 99 99
0.374805 0.628840 1.227000 89 95 94
0.502512 0.640115 1.249000 97 102 98
0.454905 0.450489 0.879000 101 107 100
0.337374 0.261376 0.510000 55 60 56
0.340514 0.230114 0.449000 28 34 27
-0.904921 0.619690 1.203000 57 68 60
-0.794288 0.624326 1.212000 56 67 65
-0.674092 0.621750 1.207000 48 59 57
-0.560405 0.625356 1.214000 53 60 56
-0.441349 0.623295 1.210000 59 65 58
-0.325211 0.625356 1.214000 98 110 112
-0.208983 0.629477 1.222000 96 107 111
-0.090611 0.629477 1.222000 101 110 114
0.027874 0.632053 1.227000 97 105 107
0.147567 0.635658 1.234000 93 102 101
0.250434 0.595994 1.157000 95 101 101
0.390708 0.642355 1.247000 93 98 94
0.511502 0.642355 1.247000 95 101 94
0.461808 0.452791 0.879000 99 104 100
0.340040 0.261681 0.508000 51 60 46
0.339443 0.228198 0.443000 32 35 27
-0.890262 0.619215 1.196000 57 68 60
-0.781531 0.624910 1.207000 55 66 64
-0.662410 0.622839 1.203000 45 56 54
-0.549055 0.626463 1.210000 51 61 56
-0.430775 0.624910 1.207000 57 64 60
-0.314636 0.626463 1.210000 94 105 109
-0.198080 0.628534 1.214000 93 103 110
-0.080682 0.630087 1.217000 100 109 113
0.037358 0.632676 1.222000 98 106 108
0.156622 0.636300 1.229000 91 100 99
0.257727 0.594881 1.149000 91 97 96
0.403714 0.650797 1.257000 93 100 96
0.519206 0.643031 1.242000 95 101 94
0.466579 0.453021 0.875000 106 111 107
0.335121 0.248514 0.480000 43 48 35
0.340276 0.221592 0.428000 60 69 67
-0.855819 0.622346 1.196000 57 67 62
-0.741203 0.623387 1.198000 50 62 57
-0.626200 0.624428 1.200000 46 57 55
-0.511234 0.625989 1.203000 51 61 56
-0.396015 0.628070 1.207000 71 82 81
-0.279097 0.628070 1.207000 92 105 111
-0.161909 0.627029 1.205000 98 107 111
-0.045634 0.633274 1.217000 98 108 110
0.072253 0.633274 1.217000 98 106 108
0.191703 0.638477 1.227000 91 97 97
0.291323 0.598930 1.151000 95 102 98
0.438164 0.651486 1.252000 93 100 96
0.548271 0.638477 1.227000 97 103 96
0.496327 0.457393 0.879000 102 111 102
0.336950 0.245608 0.472000 23 30 21
0.341323 0.219070 0.421000 87 96 94
-0.833901 0.625477 1.196000 59 66 62
-0.718048 0.625477 1.196000 50 60 55
-0.604208 0.627569 1.200000 50 60 55
-0.486341 0.625477 1.196000 54 62 55
-0.371727 0.627569 1.200000 87 97 99
-0.256551 0.630184 1.205000 91 102 106
-0.139014 0.626523 1.198000 96 105 109
-0.023197 0.632799 1.210000 98 106 108
0.094167 0.633845 1.212000 96 105 104
0.211920 0.634891 1.214000 88 97 95
0.317030 0.610834 1.168000 92 97 93
0.459267 0.652149 1.247000 97 102 98
0.567036 0.637506 1.219000 97 104 95
0.513617 0.462832 0.885000 101 108 99
0.339742 0.242660 0.464000 26 29 21
0.344064 0.217034 0.415000 92 107 108
-0.811982 0.628609 1.196000 60 69 67
-0.693219 0.625981 1.191000 51 61 56
-0.580276 0.628609 1.196000 48 58 53
-0.463258 0.627032 1.193000 55 62 58
-0.347113 0.625981 1.191000 93 104 103
-0.233495 0.630711 1.200000 98 108 110
-0.116571 0.627032 1.193000 100 110 112
-0.001017 0.632288 1.203000 97 105 107
0.116187 0.635967 1.210000 96 105 104
0.232432 0.633339 1.205000 92 98 98
0.337856 0.612841 1.166000 92 99 95
0.480960 0.653837 1.244000 95 100 96
0.585991 0.637018 1.212000 98 104 97
0.477346 0.413641 0.787000 98 104 97
0.343435 0.239670 0.456000 22 30 18
-0.885363 0.621704 1.177000 55 63 56
-0.777248 0.626458 1.186000 59 70 68
-0.660130 0.624345 1.182000 51 60 58
-0.548864 0.628042 1.189000 52 59 55
-0.432595 0.626458 1.186000 60 67 63
-0.317711 0.626458 1.186000 95 104 108
-0.204023 0.630155 1.193000 91 101 108
-0.088683 0.631740 1.196000 100 107 111
0.027261 0.633852 1.200000 97 105 107
0.144099 0.636494 1.205000 94 103 102
0.249569 0.609027 1.153000 90 96 96
0.374729 0.631740 1.196000 91 98 94
0.518090 0.646530 1.224000 98 105 96
0.465655 0.459015 0.869000 108 113 109
0.488914 0.398271 0.754000 99 107 95
0.341984 0.228715 0.433000 33 41 34
-0.839361 0.622662 1.173000 59 70 62
-0.728210 0.624785 1.177000 48 60 55
-0.615241 0.625847 1.179000 48 58 53
-0.503160 0.628501 1.184000 53 60 56
-0.387813 0.627439 1.182000 82 93 92
-0.274241 0.629563 1.186000 101 111 118
-0.159088 0.628501 1.184000 97 108 112
-0.044660 0.632217 1.191000 99 108 112
0.071125 0.635932 1.198000 93 101 103
0.188265 0.639648 1.205000 92 98 98
0.291323 0.610984 1.151000 95 101 100
0.474446 0.660351 1.244000 95 100 96
0.575340 0.638587 1.203000 95 101 94
0.518158 0.465537 0.877000 95 103 96
0.344189 0.242589 0.457000 23 30 21
-0.878593 0.623066 1.168000 56 64 57
-0.771350 0.627866 1.177000 57 68 66
-0.655104 0.625733 1.173000 50 60 55
-0.544248 0.628933 1.179000 48 57 55
-0.429312 0.627866 1.177000 67 73 72
-0.315300 0.627866 1.177000 91 102 106
-0.202484 0.631601 1.184000 92 102 109
-0.087942 0.632668 1.186000 95 103 105
0.027056 0.635335 1.191000 97 105 107
0.143023 0.638002 1.196000 97 103 103
0.249569 0.615064 1.153000 91 97 96
0.369403 0.628933 1.179000 91 98 94
0.535312 0.639069 1.198000 98 105 96
0.486130 0.463565 0.869000 89 97 90
0.505336 0.401152 0.752000 93 102 93
0.343269 0.222981 0.418000 61 69 71
-0.800801 0.629876 1.175000 56 67 65
-0.685813 0.628804 1.173000 51 62 54
-0.573164 0.629876 1.175000 52 57 53
-0.460127 0.630948 1.177000 55 62 58
-0.344056 0.627195 1.170000 94 106 108
-0.232101 0.630948 1.177000 95 105 107
-0.117888 0.629876 1.175000 99 110 114
-0.004100 0.634700 1.184000 98 106 108
0.111431 0.639525 1.193000 92 98 98
0.226232 0.637381 1.189000 92 98 97
0.339398 0.633628 1.182000 93 100 96
0.523708 0.639525 1.193000 98 105 96
0.475996 0.462624 0.863000 95 102 98
0.505336 0.403121 0.752000 91 103 93
0.344363 0.224075 0.418000 62 71 69
-0.797394 0.630259 1.170000 58 67 65
-0.682890 0.629181 1.168000 50 60 55
-0.570725 0.630259 1.170000 52 57 53
-0.458563 0.631875 1.173000 56 63 59
-0.342879 0.628104 1.166000 94 106 108
-0.230721 0.630259 1.170000 95 105 107
-0.117386 0.630259 1.170000 100 111 115
-0.004083 0.635107 1.179000 98 106 108
0.111057 0.640494 1.189000 92 98 98
0.225281 0.637800 1.184000 92 98 97
0.338536 0.635107 1.179000 93 100 96
0.532156 0.637800 1.184000 98 104 97
0.487281 0.467038 0.867000 96 103 99
0.344326 0.248871 0.462000 22 29 20
-0.880872 0.623037 1.151000 61 70 61
-0.778068 0.630074 1.164000 57 66 64
-0.665314 0.630074 1.164000 50 61 53
-0.552561 0.630074 1.164000 52 58 57
-0.440563 0.631156 1.166000 71 77 76
-0.327054 0.630074 1.164000 95 105 107
-0.214669 0.631156 1.166000 98 107 111
-0.101896 0.632239 1.168000 97 107 114
0.011312 0.636028 1.175000 101 110 109
0.125876 0.639817 1.182000 89 95 94
0.238543 0.634946 1.173000 91 97 96
0.352769 0.636028 1.175000 91 98 94
0.448510 0.476345 0.880000 86 94 87
0.493515 0.408682 0.755000 96 105 96
0.342945 0.228970 0.423000 70 81 79
-0.811137 0.630402 1.159000 59 66 62
-0.696456 0.628226 1.155000 50 60 55
-0.585587 0.629314 1.157000 53 60 56
-0.476376 0.633121 1.164000 57 62 58
-0.361436 0.629314 1.157000 93 104 102
-0.250438 0.632033 1.162000 94 103 107
-0.137523 0.630402 1.159000 96 107 111
-0.025450 0.635297 1.168000 98 106 108
0.088742 0.642912 1.182000 93 101 103
0.202035 0.639104 1.175000 88 97 95
0.315317 0.638017 1.173000 92 99 95
0.522847 0.640192 1.177000 97 99 93
0.486157 0.470490 0.865000 98 106 99
0.349164 0.251290 0.462000 26 29 21
-0.862025 0.624145 1.142000 57 65 58
-0.759956 0.631250 1.155000 52 61 59
-0.645830 0.629064 1.151000 48 58 53
-0.536193 0.631250 1.155000 54 61 57
-0.423577 0.630157 1.153000 82 93 91
-0.312430 0.631250 1.155000 95 104 108
-0.200896 0.632343 1.157000 97 109 111
-0.089358 0.636169 1.164000 99 108 112
0.023476 0.638355 1.168000 94 105 104
0.137202 0.641087 1.173000 87 96 94
0.247833 0.633436 1.159000 95 99 98
0.361656 0.636169 1.164000 91 98 94
0.437651 0.484231 0.886000 97 101 90
0.699185 0.641087 1.173000 100 110 98
0.343637 0.233918 0.428000 35 42 33
-0.812975 0.633175 1.153000 56 63 59
-0.695813 0.628233 1.144000 51 60 58
-0.584997 0.628233 1.144000 50 57 53
-0.477912 0.633175 1.153000 58 63 59
-0.364953 0.630979 1.149000 95 106 105
-0.254094 0.632077 1.151000 92 103 107
-0.142600 0.632077 1.151000 97 109 111
-0.031268 0.635372 1.157000 97 105 107
0.081924 0.644158 1.173000 91 99 101
0.194049 0.639216 1.164000 89 98 96
0.306803 0.639216 1.164000 90 97 93
0.376400 0.561236 1.022000 92 98 91
0.455848 0.478863 0.872000 93 104 96
0.735465 0.646355 1.177000 75 77 71
0.344630 0.231194 0.421000 82 94 89
-0.793038 0.632331 1.146000 56 63 59
-0.679648 0.630124 1.142000 50 60 55
-0.567032 0.627917 1.138000 56 63 59
-0.460009 0.632331 1.146000 68 77 75
-0.348999 0.632331 1.146000 93 104 103
-0.237574 0.631228 1.144000 90 101 105
-0.126980 0.632331 1.146000 91 102 106
-0.016123 0.638401 1.157000 96 103 107
0.096865 0.644471 1.168000 88 97 96
0.208927 0.641160 1.162000 91 100 98
0.322593 0.643367 1.166000 95 102 98
0.380663 0.554532 1.005000 93 99 92
0.456893 0.482249 0.874000 94 96 90
0.729895 0.647229 1.173000 61 61 55
0.345841 0.240021 0.435000 29 36 27
-0.821604 0.634223 1.144000 61 69 62
-0.707060 0.630897 1.138000 51 61 56
-0.594728 0.628679 1.134000 54 62 55
-0.490011 0.635332 1.146000 58 64 57
-0.377017 0.632005 1.140000 94 104 106
-0.266589 0.632005 1.140000 94 104 106
-0.156708 0.634223 1.144000 96 105 109
-0.045972 0.635332 1.146000 95 105 107
0.065945 0.644202 1.162000 93 101 103
0.177122 0.639212 1.153000 91 97 96
0.288309 0.638104 1.151000 93 99 98
0.378681 0.595416 1.074000 93 101 94
0.445920 0.490081 0.884000 82 79 62
0.705379 0.647528 1.168000 59 58 50
0.349890 0.250585 0.452000 29 33 22
-0.831522 0.628863 1.129000 63 71 64
-0.727916 0.633876 1.138000 52 60 53
-0.611710 0.627749 1.127000 50 60 55
-0.507446 0.633876 1.138000 54 61 57
-0.397211 0.633876 1.138000 92 105 104
-0.286472 0.632762 1.136000 94 104 106
-0.177052 0.634990 1.140000 101 109 111
-0.066857 0.637218 1.144000 96 105 109
0.044228 0.641117 1.151000 95 103 105
0.155992 0.642231 1.153000 89 95 94
0.266751 0.640003 1.149000 93 99 98
0.376407 0.637218 1.144000 90 98 91
0.434228 0.502979 0.903000 89 89 70
0.503211 0.485155 0.871000 42 43 30
0.358486 0.267921 0.481000 33 37 26
-0.859554 0.630699 1.127000 60 72 62
-0.751716 0.631819 1.129000 54 61 57
-0.644060 0.633498 1.132000 52 63 55
-0.532046 0.630699 1.127000 54 61 57
-0.425503 0.634617 1.134000 87 98 96
-0.316213 0.635736 1.136000 94 103 107
-0.204901 0.631819 1.129000 94 105 109
-0.096300 0.636855 1.138000 99 109 111
0.014008 0.640213 1.144000 98 104 104
0.126025 0.646369 1.155000 84 93 91
0.236670 0.643011 1.149000 93 97 96
0.348576 0.644130 1.151000 92 99 95
0.392119 0.548994 0.981000 92 98 91
0.469218 0.482958 0.863000 45 42 32
0.748674 0.651406 1.164000 40 41 33
0.346267 0.236722 0.423000 87 87 87
-0.778318 0.634774 1.129000 56 63 59
-0.665400 0.631401 1.123000 50 60 55
-0.554636 0.629152 1.119000 54 61 57
-0.449432 0.633650 1.127000 77 88 86
-0.341772 0.636461 1.132000 96 106 108
-0.231093 0.633650 1.127000 91 101 103
-0.122465 0.636461 1.132000 93 104 108
-0.012879 0.639835 1.138000 94 102 104
0.098297 0.646019 1.149000 91 100 99
0.208320 0.642084 1.142000 89 98 96
0.320060 0.644333 1.146000 95 102 98
0.385931 0.576863 1.026000 95 101 94
0.453352 0.492526 0.876000 41 42 29
0.719434 0.655577 1.166000 43 43 32
0.351461 0.250199 0.445000 28 34 27
-0.809395 0.636600 1.127000 56 61 57
-0.696498 0.633211 1.121000 52 62 57
-0.585812 0.630952 1.117000 56 62 55
-0.481032 0.635471 1.125000 69 76 72
-0.372057 0.635471 1.125000 98 108 110
-0.262613 0.634341 1.123000 93 103 105
-0.154379 0.636600 1.127000 96 105 109
-0.045411 0.639425 1.132000 100 107 111
0.064810 0.645073 1.142000 89 99 101
0.174511 0.641684 1.136000 84 91 87
0.284552 0.641684 1.136000 89 99 94
0.389383 0.633211 1.121000 95 102 93
0.436526 0.507247 0.898000 51 49 35
0.507772 0.491996 0.871000 37 37 26
0.780735 0.646203 1.144000 83 94 80
-0.841734 0.635011 1.119000 60 72 62
-0.730718 0.632741 1.115000 55 63 56
-0.624945 0.635011 1.119000 51 61 56
-0.515628 0.633876 1.117000 56 62 61
-0.408886 0.636146 1.121000 89 100 98
-0.300298 0.636146 1.121000 94 104 106
-0.191368 0.635011 1.119000 96 105 109
-0.083419 0.638416 1.125000 95 105 107
0.025716 0.642388 1.132000 95 103 105
0.136087 0.645793 1.138000 84 90 89
0.246322 0.645793 1.138000 91 98 94
0.355303 0.643523 1.134000 92 100 93
0.399521 0.552726 0.974000 87 93 86
0.461780 0.491438 0.866000 35 37 26
0.733814 0.655440 1.155000 61 65 54
0.348785 0.245719 0.433000 31 39 32
-0.781743 0.636801 1.117000 57 63 56
-0.671130 0.634520 1.113000 47 57 52
-0.561293 0.632240 1.109000 52 59 55
-0.456323 0.635660 1.115000 80 91 90
-0.348940 0.636801 1.117000 91 103 105
-0.240309 0.635660 1.115000 91 100 104
-0.133014 0.639081 1.121000 101 108 112
-0.024469 0.640221 1.123000 94 101 105
0.085138 0.646492 1.134000 89 98 97
0.194126 0.643642 1.129000 88 93 89
0.302951 0.642501 1.127000 90 100 95
0.399687 0.623118 1.093000 91 97 90
0.435190 0.515940 0.905000 43 43 32
0.502634 0.495986 0.870000 33 36 23
0.776381 0.651053 1.142000 88 98 86
-0.837221 0.637434 1.113000 57 69 64
-0.725476 0.633998 1.107000 58 65 56
-0.621595 0.637434 1.113000 53 63 58
-0.511012 0.633998 1.107000 56 63 59
-0.405968 0.637434 1.113000 89 102 101
-0.298155 0.637434 1.113000 94 103 107
-0.190000 0.636289 1.111000 96 105 109
-0.082825 0.639725 1.117000 94 105 104
0.025511 0.643161 1.123000 97 105 107
0.134532 0.644307 1.125000 86 92 91
0.244374 0.646597 1.129000 90 97 93
0.353110 0.645452 1.127000 92 100 93
0.399931 0.558399 0.975000 90 96 89
0.448253 0.501127 0.875000 35 35 24
0.702865 0.655188 1.144000 70 83 70
0.354594 0.260586 0.455000 32 34 28
-0.793564 0.638047 1.109000 53 61 54
-0.683664 0.635745 1.105000 50 56 55
-0.576626 0.635745 1.105000 55 60 56
-0.470437 0.636896 1.107000 82 93 92
-0.363862 0.638047 1.109000 92 104 106
-0.255974 0.636896 1.107000 92 103 107
-0.149279 0.639197 1.111000 94 103 107
-0.041735 0.640348 1.113000 96 104 106
0.066672 0.646101 1.123000 89 97 99
0.174829 0.643800 1.119000 88 95 91
0.283223 0.643800 1.119000 91 97 96
0.391618 0.643800 1.119000 94 100 93
0.418444 0.535637 0.931000 41 41 30
0.473116 0.498240 0.866000 32 34 23
0.739206 0.655882 1.140000 96 104 97
0.350954 0.245093 0.426000 56 57 49
-0.748843 0.637482 1.103000 54 63 54
-0.641999 0.637482 1.103000 54 62 55
-0.532243 0.634014 1.097000 55 62 58
-0.427533 0.636326 1.101000 89 100 99
-0.321465 0.637482 1.103000 93 105 107
-0.214621 0.637482 1.103000 92 101 105
-0.108167 0.639794 1.107000 101 111 113
-0.000937 0.640950 1.109000 94 102 104
0.107065 0.644418 1.115000 87 96 95
0.215843 0.646729 1.119000 85 92 88
0.324237 0.646729 1.119000 92 99 95
0.409434 0.612052 1.059000 95 101 94
0.436433 0.516112 0.893000 33 36 28
0.668820 0.654243 1.132000 36 41 28
0.775035 0.651353 1.127000 102 111 102
-0.802209 0.636886 1.097000 54 63 54
-0.697215 0.638048 1.099000 53 60 56
-0.590758 0.638048 1.099000 54 61 57
-0.482538 0.635725 1.095000 79 90 88
-0.378532 0.639209 1.101000 89 102 101
-0.271881 0.639209 1.101000 97 109 111
-0.165230 0.639209 1.101000 93 102 106
-0.058686 0.640370 1.103000 94 104 106
0.048595 0.646176 1.113000 89 98 96
0.155846 0.643853 1.109000 88 94 93
0.264696 0.647337 1.115000 84 89 85
0.372703 0.647337 1.115000 91 98 94
0.406257 0.540512 0.931000 40 41 33
0.458047 0.498711 0.859000 32 34 23
0.716237 0.657206 1.132000 94 100 93
0.361742 0.264160 0.455000 33 36 28
-0.763547 0.636259 1.091000 57 64 55
-0.659070 0.637426 1.093000 53 60 56
-0.551170 0.635093 1.089000 55 63 56
-0.447319 0.637426 1.093000 91 102 101
-0.341443 0.637426 1.093000 93 103 105
-0.235998 0.638592 1.095000 95 105 107
-0.130403 0.640925 1.099000 95 99 104
-0.023903 0.639758 1.097000 93 101 103
0.083111 0.645590 1.107000 88 97 96
0.190687 0.646757 1.109000 86 93 89
