-1.681142 -0.724370 2.788000 121 145 185
-1.839845 -1.279043 2.853000 114 138 172
-0.168723 -0.701211 2.545000 169 169 170
-2.183436 1.857632 4.868000 115 119 108
-1.563672 -0.110438 3.446000 129 129 118
0.114694 0.069570 0.213000 5 11 10
1.750174 -0.171570 4.035000 39 56 77
-2.144708 1.317332 4.543000 118 115 98
0.121716 0.032107 0.274000 25 45 65
1.814238 -1.016160 3.228000 180 183 170
0.080636 0.160790 0.309000 12 18 11
1.538000 -1.074411 2.514000 184 184 178
-0.018389 0.130996 0.248000 20 27 23
-2.061186 -0.812649 3.036000 112 139 177
-0.731465 -1.342120 2.813000 177 176 173
-0.372755 -1.511265 2.621000 171 171 152
0.080087 -0.029294 0.370000 83 102 138
-0.016707 0.129810 0.252000 16 22 15
1.104354 -0.787983 3.228000 51 58 62
1.892426 -1.035497 2.453000 183 184 176
-1.246639 -0.085768 3.545000 145 143 143
0.145446 0.056050 0.219000 50 56 49
-1.202692 -0.057599 3.525000 141 138 142
-0.079798 0.157253 0.310000 87 106 108
-0.087303 -0.787933 2.503000 167 165 171
-2.847168 -0.118418 3.695000 121 148 181
0.108937 0.119913 0.278000 50 73 89
-1.552322 -0.581215 2.667000 123 151 186
2.583814 -0.974393 3.407000 172 173 158
0.345190 -0.794486 2.503000 102 112 141
0.022475 0.145983 0.271000 7 12 8
-1.956461 -1.381927 2.610000 107 132 161
-2.720965 0.563691 3.932000 130 133 118
2.470325 -1.152750 3.280000 172 177 164
0.889031 -1.501378 2.702000 189 189 178
-2.747344 0.424401 3.882000 129 135 128
-2.352441 -0.228976 3.465000 123 151 186
0.063481 -0.002042 0.348000 95 116 152
-0.543827 -0.686884 2.493000 187 185 185
1.951784 -0.848518 3.333000 160 169 160
-2.015648 0.569929 2.992000 127 130 110
0.042917 -0.094156 0.403000 78 92 116
1.806706 -0.350153 3.906000 52 59 63
-0.048949 0.105055 0.300000 49 55 54
-2.095333 -0.928491 3.051000 119 142 178
-3.281559 1.747062 4.230000 119 125 102
0.075697 -0.000224 0.354000 72 81 124
-2.138002 -0.840270 3.021000 116 141 179
-1.463436 -0.156405 3.465000 154 154 155
-0.725743 -0.876777 2.632000 188 188 189
-3.359808 1.803640 4.259000 111 123 104
0.081275 0.050273 0.371000 76 100 134
0.058375 0.070394 0.380000 34 50 74
1.993732 0.007810 3.932000 63 64 56
0.121808 -0.918121 2.632000 127 143 160
0.089010 0.066332 0.217000 34 59 76
1.160023 -0.848073 2.566000 155 160 156
0.102143 0.121017 0.359000 36 51 70
0.004666 -0.890558 2.632000 139 137 137
0.103591 -1.380289 2.893000 184 182 176
-0.292314 -1.409417 2.702000 183 182 174
0.126874 0.034000 0.261000 21 32 36
0.131515 0.058664 0.234000 20 32 27
1.990390 -0.629769 3.525000 108 113 109
-2.482916 0.816546 4.172000 124 129 116
-0.412700 -1.499251 2.750000 175 171 152
-0.066597 0.142184 0.309000 84 96 104
1.666513 -1.335302 2.667000 186 185 177
1.024625 -0.870377 2.514000 119 117 111
0.049529 0.128410 0.346000 5 9 8
-2.555090 1.732012 4.946000 119 123 105
1.359766 -0.852614 3.315000 105 105 105
-0.033854 0.044512 0.356000 90 89 86
0.105430 -0.001050 0.323000 66 88 127
-0.744646 -1.459831 2.555000 146 168 200
-1.362708 0.253765 3.763000 158 155 152
-1.508158 -1.286338 2.726000 114 141 179
-1.823372 -1.391852 2.655000 111 135 167
0.569121 -0.790210 2.763000 93 108 143
0.098034 0.051783 0.239000 30 55 74
-0.519208 -1.178273 3.036000 179 174 169
-1.628019 0.638108 3.651000 124 127 114
1.672206 -1.310888 2.632000 189 187 181
3.007821 0.532965 3.651000 102 111 102
-1.196338 -0.554855 2.577000 153 162 173
2.612456 -0.675443 3.673000 171 172 169
-1.051825 -0.606403 2.655000 150 144 142
1.395939 -1.599874 2.826000 192 190 178
1.941601 -0.697884 3.407000 112 118 117
0.165065 0.099329 0.201000 16 17 14
-1.045419 0.119815 3.587000 171 167 173
-0.022857 0.119185 0.262000 20 28 21
-0.011581 0.128955 0.271000 19 21 15
0.163734 0.084818 0.208000 27 35 37
0.770416 -1.697552 2.866000 189 187 175
0.060853 -0.093100 0.403000 92 107 142
-0.861874 -1.193949 2.190000 126 150 190
0.046402 0.136662 0.297000 6 12 5
2.306265 -0.577280 3.786000 114 123 114
-0.081936 0.168673 0.300000 191 212 214
-2.753137 1.185167 4.201000 137 137 113
-0.383235 -0.722894 2.599000 182 180 181
0.515065 -1.501128 2.907000 184 183 175
1.706280 -0.899775 3.297000 130 135 131
0.107149 0.071059 0.206000 5 16 20
2.182431 -0.831678 3.407000 167 171 160
-2.695592 0.757345 3.673000 129 132 112
-1.858026 0.276812 3.809000 128 132 121
-0.013301 0.131398 0.250000 17 24 15
-0.068556 0.138050 0.322000 76 78 83
-1.078499 -0.258541 3.161000 144 139 143
1.883325 -0.293434 3.833000 54 63 62
0.117247 0.109329 0.277000 46 72 87
-1.587646 -1.404156 2.588000 115 137 171
-0.843771 -1.286745 2.144000 119 144 187
1.402647 -1.578727 2.738000 192 193 178
-0.824915 -1.305983 2.555000 140 164 198
1.791941 -0.920897 3.280000 161 167 160
1.788672 -0.501726 3.740000 73 71 71
0.985037 -0.732623 3.067000 46 61 80
2.489636 -0.382845 4.035000 87 91 80
1.985548 -1.063363 2.473000 183 184 176
0.194917 -1.065118 2.690000 141 143 148
0.047082 0.126420 0.348000 6 6 6
-2.379324 -0.981537 3.067000 109 136 174
0.571140 -1.428196 2.738000 186 185 177
-2.738432 0.315167 3.566000 122 151 182
0.156973 0.134470 0.278000 4 11 7
0.124515 0.127668 0.237000 11 22 21
0.006765 0.160605 0.267000 22 24 13
0.025562 0.102296 0.366000 11 20 18
-0.429519 -1.320027 2.813000 179 178 170
0.463342 -0.743762 2.577000 106 120 157
-0.109001 0.150466 0.327000 116 121 108
-0.869842 -1.198430 2.167000 123 148 191
-0.052678 0.064814 0.345000 92 96 95
2.534238 -0.190718 3.786000 104 113 104
-1.869909 0.518864 3.983000 132 132 121
-2.777310 0.748273 3.629000 126 135 121
0.030988 0.145551 0.284000 7 13 6
-2.676223 0.027011 3.740000 120 149 182
-0.814556 -1.155786 2.463000 147 169 196
2.618729 -0.972837 3.465000 170 171 156
0.041820 -0.104061 0.413000 97 110 141
0.136465 0.058162 0.232000 58 62 62
-2.019106 -0.965335 2.853000 112 139 177
0.039147 0.132986 0.301000 9 11 5
1.242984 -1.178780 2.599000 184 183 180
1.937553 -1.161450 2.503000 185 185 174
-0.030916 0.034307 0.377000 84 90 89
-1.783341 -1.044491 2.907000 117 140 183
-2.836692 1.660323 4.381000 116 119 99
1.025389 -1.678859 2.726000 189 187 175
1.076996 -0.931151 2.483000 178 179 176
0.075697 0.001630 0.354000 76 87 125
0.004120 -0.089912 0.428000 89 101 135
0.704116 -0.867784 2.545000 76 74 75
-1.402919 -0.702025 2.702000 127 151 191
-1.541075 -1.017620 2.853000 118 144 184
0.110825 0.069244 0.212000 8 18 13
-2.069547 -0.294847 3.388000 123 145 177
0.042385 -0.059644 0.398000 101 120 156
2.383479 0.273456 2.921000 116 125 116
1.271685 -1.592514 2.813000 196 194 182
0.009754 -0.022418 0.385000 99 115 152
-3.321668 1.803670 4.510000 117 122 102
-0.826856 -0.927085 2.405000 165 170 181
-2.924492 1.943889 4.829000 115 117 99
-1.615699 -1.001591 2.893000 121 146 184
-0.017568 0.126794 0.265000 22 28 21
0.955935 -0.832640 3.051000 43 49 49
-1.710262 -0.149884 3.525000 130 131 123
-0.894452 -1.079656 2.288000 131 156 194
-0.059921 -1.456054 2.750000 184 180 173
-2.051848 0.666632 3.932000 125 128 113
-2.278701 -1.305774 2.879000 107 132 161
0.128698 -0.966355 2.632000 104 108 108
-0.794516 -1.424943 2.678000 151 166 192
-1.880788 -0.766798 2.893000 116 142 182
-2.502935 0.901077 3.194000 124 149 145
-2.730973 0.837191 3.485000 137 161 161
2.415198 -0.776540 3.651000 164 170 163
-0.795642 -1.139674 2.350000 144 164 196
1.270201 -1.185584 2.599000 188 188 182
0.035017 0.118739 0.355000 13 17 17
1.701375 -1.071962 2.493000 184 184 178
-1.278521 -0.639809 2.621000 138 158 192
-3.845419 0.762835 4.718000 128 161 188
-2.581842 0.911721 3.262000 142 164 164
3.259906 -0.795130 3.932000 169 170 167
-0.960311 -0.832872 2.424000 158 168 190
0.797258 -0.982430 2.566000 131 133 127
-2.120606 2.375852 3.833000 134 136 110
-1.424989 -0.808411 2.801000 126 149 192
0.069542 0.005292 0.351000 87 110 146
-0.010837 0.111796 0.289000 14 19 15
-1.346260 1.057826 3.857000 125 123 109
-1.662785 -1.415199 2.621000 116 136 168
-1.639459 -0.914796 3.006000 121 145 185
-1.775651 -0.113611 3.545000 128 131 123
0.707335 -1.449700 2.738000 188 184 177
-2.172742 1.614776 4.577000 118 122 111
0.105956 0.062607 0.224000 16 31 45
1.335877 -0.921847 2.493000 181 182 174
0.040706 0.088152 0.402000 32 38 38
-0.362303 -1.254466 2.750000 182 181 173
0.109228 0.126124 0.268000 51 72 81
0.115248 0.050517 0.245000 10 22 30
-0.017425 0.133973 0.235000 22 26 25
0.154484 0.083189 0.218000 20 21 18
0.091068 0.132032 0.279000 22 33 32
-0.627138 -1.287665 2.775000 179 177 171
0.067450 0.141588 0.345000 5 12 8
0.339878 -1.481930 2.667000 185 184 176
1.014061 -0.711999 3.082000 44 54 69
-2.196181 1.844887 4.868000 113 121 109
0.024423 0.144139 0.277000 11 11 11
-1.943500 -1.500440 2.726000 110 134 161
0.017494 -0.016073 0.378000 97 111 153
0.107672 -0.009063 0.338000 79 87 133
0.514436 -1.118851 2.667000 109 102 103
1.950271 -0.687801 3.587000 107 113 106
0.096151 0.094263 0.376000 41 59 84
-2.172742 1.387104 4.577000 137 137 118
2.730619 -0.469960 3.882000 135 139 138
-0.828122 -1.362824 2.524000 138 160 199
1.766057 -1.061162 2.483000 185 185 179
-1.061948 -0.366124 3.161000 171 166 161
0.746433 -1.571247 2.750000 192 190 178
-0.348905 -1.289161 2.702000 185 181 174
1.021356 -1.130477 2.678000 176 176 177
-2.245723 -0.881444 3.082000 112 138 178
-0.020100 0.104287 0.281000 20 22 16
0.087902 -0.008768 0.327000 91 99 145
1.157192 -0.847795 2.545000 165 165 165
-2.832886 0.027011 3.740000 126 153 186
-1.387246 -0.608041 2.632000 133 155 194
0.138981 0.037689 0.245000 93 100 91
0.041851 0.112836 0.366000 19 28 26
1.590035 -0.973148 2.577000 180 182 176
-1.689259 -0.800830 2.826000 122 144 183
-0.285681 -1.309460 2.775000 179 177 171
-0.916271 -1.150127 2.183000 122 145 188
-1.873195 0.483383 4.035000 127 128 115
0.144872 0.058917 0.219000 42 49 45
-2.876993 2.179907 4.792000 114 115 93
-1.276179 -0.135305 3.629000 132 129 126
-1.607536 -1.466521 2.555000 110 132 166
-1.825735 0.234062 3.763000 124 128 117
0.143881 0.065819 0.221000 41 50 41
-0.185378 -1.508795 2.690000 178 171 153
1.580995 -1.570420 2.813000 193 191 177
3.002810 -0.619224 3.740000 166 172 165
-0.032129 -1.094385 2.839000 180 183 186
-0.078222 0.161357 0.307000 93 107 115
-3.093170 -0.234685 3.857000 119 147 182
-0.021059 -0.015218 0.439000 22 26 25
-1.975907 -0.426142 2.702000 118 145 183
0.105644 0.123108 0.277000 51 71 83
0.115411 0.119202 0.285000 57 81 94
0.051743 -0.066614 0.390000 91 108 141
2.201801 -0.002584 4.089000 128 137 128
-1.815886 -1.008448 2.935000 117 142 180
0.012198 -0.045170 0.399000 129 146 179
-0.064240 -1.572733 2.632000 171 171 152
-2.768710 0.508211 3.545000 127 149 167
0.117367 -0.002783 0.328000 68 90 124
0.675159 -1.386307 2.813000 186 184 178
0.009847 0.153177 0.275000 9 16 7
-1.001004 -1.133368 2.206000 122 146 186
0.092677 0.151894 0.243000 21 28 24
0.047629 0.146314 0.277000 11 13 7
0.115375 -0.817419 2.493000 136 151 177
-2.229353 -0.586272 2.826000 114 140 175
-0.059111 0.142770 0.292000 47 61 64
-0.031116 -0.027607 0.435000 39 37 37
-0.026916 0.008247 0.406000 69 68 72
-3.228491 2.456627 4.868000 111 116 91
0.222907 0.048798 0.297000 60 69 67
0.053745 0.131271 0.344000 5 9 8
-0.110318 -1.247266 2.750000 180 178 172
3.506969 -0.401347 4.230000 162 166 148
-0.197758 -0.951276 2.667000 179 178 182
2.114354 -1.643243 2.750000 199 195 176
-0.001849 0.111231 0.304000 13 12 9
0.888375 -0.851085 3.211000 52 72 90
-1.392259 -0.363047 3.446000 150 148 136
0.164056 0.084132 0.205000 24 33 31
-2.963252 0.955354 3.695000 158 187 206
2.380108 -0.510983 3.809000 118 119 116
0.399361 -0.778233 2.514000 98 110 139
0.155546 0.095003 0.203000 5 7 1
-1.165725 -1.049499 2.599000 125 150 193
1.784042 -0.133708 3.857000 41 52 65
2.673012 -0.002533 4.009000 56 65 51
-0.071792 0.156534 0.307000 78 92 102
2.872088 -0.511970 3.673000 165 167 161
-2.220153 -0.931874 3.036000 111 136 174
-1.628895 0.519394 3.833000 119 124 111
-1.531375 -0.448552 2.667000 126 151 189
-0.032440 0.055418 0.332000 92 92 86
-0.014126 0.001865 0.405000 17 21 21
0.036323 0.138472 0.291000 4 16 6
-0.068130 0.153119 0.305000 72 89 96
0.057914 0.100436 0.377000 10 11 8
1.108938 -0.945588 2.453000 180 180 180
-1.527689 -0.172583 3.426000 132 132 121
1.266260 -1.563721 2.801000 193 191 179
-0.827129 -0.794629 2.443000 189 190 187
-1.778042 -1.222547 2.826000 112 137 175
0.108437 0.132707 0.250000 38 52 62
0.681170 -0.870667 2.534000 62 62 62
0.425413 -1.593209 2.678000 179 175 156
-0.891846 0.170550 3.297000 168 164 164
2.605838 -0.484098 3.833000 138 141 133
0.155181 0.111882 0.186000 8 10 4
-1.838338 -1.580318 2.588000 110 129 157
-0.202831 -0.851126 2.555000 179 178 182
0.565376 -1.081514 2.644000 107 103 104
-1.989955 0.660599 2.977000 126 130 112
2.998377 0.536086 3.809000 75 87 77
-1.971568 -1.566160 2.621000 109 131 158
0.489291 -1.477167 2.935000 186 181 176
0.151506 0.050424 0.222000 68 81 68
2.704499 0.081432 4.009000 59 68 54
-1.086862 0.332578 3.763000 161 161 150
1.503960 -0.710745 3.426000 94 98 87
0.740478 -1.529674 2.702000 192 189 179
-0.025943 0.149603 0.252000 21 28 19
0.097288 0.068477 0.245000 34 66 82
1.846688 -1.364049 2.655000 188 188 182
-0.471199 -1.154443 2.935000 178 177 169
-0.870777 -1.158030 2.198000 124 149 192
0.458450 -1.225667 2.750000 140 138 138
0.365849 -1.224288 2.813000 99 96 100
-0.773341 -1.260865 2.702000 169 173 178
1.297237 -1.458305 2.853000 188 191 178
-0.472935 -0.590047 2.644000 182 181 178
1.314895 -0.549814 3.545000 63 71 91
-2.096179 -0.993192 2.826000 112 138 173
0.714340 -0.956910 2.534000 120 127 136
-1.581055 -1.500906 2.534000 109 131 163
0.023124 0.126403 0.308000 19 26 22
-0.804827 -0.971276 2.453000 168 170 175
1.694089 -0.768604 3.485000 119 118 115
0.939960 -0.832640 3.051000 39 44 47
0.028993 0.027180 0.361000 65 82 115
0.697207 -0.833592 3.145000 93 109 133
0.084681 0.154318 0.309000 12 13 10
-0.430865 -1.525797 2.599000 174 171 154
-0.027979 0.013561 0.406000 57 57 57
-2.189121 -0.459451 2.775000 114 146 178
1.262439 -0.796163 3.333000 57 73 85
1.236565 -0.753537 3.587000 48 61 67
0.977829 -1.593427 2.655000 187 188 173
-2.508064 0.667648 3.505000 127 130 115
-3.594543 2.348448 4.829000 117 119 95
1.980649 -0.986504 2.443000 178 178 172
-0.701717 -1.146759 2.935000 177 175 169
3.423231 -0.164238 4.116000 159 165 147
0.079765 0.144931 0.336000 9 11 5
-0.039326 0.015760 0.382000 80 77 74
-0.055216 0.076392 0.318000 79 77 78
3.141978 -0.409593 4.201000 162 165 152
-2.130600 0.716989 3.983000 123 126 111
-1.739279 0.248451 3.833000 124 126 115
0.152899 0.082424 0.219000 15 20 23
-2.889732 -0.250826 3.651000 118 147 180
0.075078 0.082012 0.374000 29 42 61
0.168596 0.089062 0.204000 17 26 25
2.341116 0.282451 2.935000 98 110 100
-2.866952 1.614228 4.289000 124 125 103
0.088422 0.028426 0.353000 93 115 154
0.053276 0.147899 0.280000 13 16 8
1.888167 -0.977302 2.588000 175 181 174
-3.610669 2.693222 4.577000 129 130 101
1.186894 -1.089916 2.566000 182 180 180
0.100877 0.134375 0.336000 28 37 46
0.144382 0.060913 0.220000 34 44 39
1.530578 -1.687242 2.775000 193 194 179
-0.185695 -1.321729 2.801000 180 180 174
0.090155 -1.322081 2.949000 179 177 171
0.090859 0.131636 0.338000 17 22 25
0.169059 0.071266 0.202000 43 54 46
-2.219310 -0.918369 2.992000 111 136 174
1.636046 -1.009157 2.483000 181 182 179
0.110236 0.139533 0.228000 29 40 44
-1.897500 -0.770509 2.907000 117 143 183
-2.784781 0.263409 3.906000 123 140 154
-1.089706 -1.193943 2.222000 119 143 183
1.705247 -0.898763 3.262000 133 140 136
0.522909 -1.488895 2.826000 185 184 176
-1.793665 -0.897450 2.949000 120 145 183
0.104197 0.064953 0.224000 21 38 47
-0.865563 -1.059681 2.323000 135 161 196
0.091233 0.102025 0.372000 31 51 71
2.295127 -0.598515 3.673000 130 140 135
-1.631791 1.254908 4.289000 146 149 129
0.122252 0.032585 0.272000 29 44 63
-2.645073 0.529893 3.566000 128 135 126
1.447762 -0.902772 2.588000 180 179 171
2.516930 -0.321600 4.062000 84 89 85
0.126376 0.123324 0.237000 9 19 21
-0.037949 -0.019635 0.435000 101 94 95
2.302106 -0.504812 3.763000 118 125 116
0.157077 -0.857399 2.534000 140 151 177
2.089211 -0.800544 3.505000 152 157 153
0.107312 0.126794 0.265000 43 64 71
-1.398092 0.107962 3.833000 155 155 156
0.549798 -1.462026 2.775000 185 185 174
-2.431437 0.164091 3.740000 129 135 128
0.150606 0.082997 0.219000 13 22 21
0.063349 0.094271 0.380000 11 20 24
2.958078 -0.023372 3.983000 120 128 116
-0.910099 -0.591101 2.588000 199 195 188
0.014579 0.142075 0.283000 8 13 9
2.433323 0.297818 2.935000 104 115 107
-0.044148 -0.979206 2.667000 173 172 176
-3.122240 0.202053 3.906000 123 152 183
-0.002314 -0.947928 2.738000 161 167 166
-1.759837 -1.528022 2.524000 114 131 159
0.305917 -1.378018 2.738000 182 181 173
0.124722 0.068472 0.224000 12 17 13
1.210495 -0.881109 2.545000 180 179 176
0.682499 -1.371748 2.907000 183 181 175
0.125798 0.041405 0.252000 14 23 27
0.156477 0.119662 0.220000 6 11 7
-0.021957 -0.688817 2.524000 90 90 100
0.110899 -1.480157 2.702000 183 183 172
-2.305589 -0.328572 3.370000 120 151 185
0.070124 0.151029 0.332000 4 12 5
0.124444 0.117126 0.256000 23 44 51
-1.919907 0.539463 3.833000 126 129 116
-0.732263 -1.133118 2.788000 173 173 167
-0.551588 -1.374988 2.690000 177 178 170
0.162446 0.066958 0.205000 54 55 52
0.109025 0.121354 0.360000 41 61 79
-2.186172 0.349670 3.446000 126 126 115
-3.369045 0.041339 4.201000 122 151 184
-0.235168 -0.772015 2.473000 179 179 180
0.548949 -1.029086 2.599000 76 82 89
2.185069 -0.125180 3.906000 91 96 92
0.069758 0.077735 0.377000 29 44 65
0.164438 0.092671 0.211000 10 18 11
-1.535168 -1.567670 2.524000 109 129 161
-0.171293 -1.410200 2.690000 186 182 175
2.475338 0.399285 3.333000 55 56 41
0.039997 -0.056092 0.395000 109 129 163
-2.669064 0.058149 3.857000 122 143 166
0.006993 0.153734 0.276000 17 27 15
-0.703403 -0.205327 2.879000 188 184 177
-1.705882 -0.374676 3.388000 133 133 127
-0.914216 -1.053600 2.323000 136 158 197
-2.315119 0.558736 3.695000 122 125 105
-3.225564 1.078523 4.009000 156 187 208
0.126092 0.116690 0.258000 21 40 47
-2.919823 0.890785 3.629000 155 187 205
0.057268 0.124042 0.349000 7 12 8
-1.115589 0.055707 3.695000 164 161 165
-0.025893 0.103183 0.280000 25 25 25
-1.990626 -1.532255 2.610000 107 131 158
-2.070836 -0.877909 3.098000 117 142 180
-2.542196 0.670027 4.144000 111 115 104
0.171528 -1.391852 2.655000 182 183 175
2.016930 -1.656309 2.678000 193 193 174
0.072377 0.180229 0.292000 31 30 27
-1.336162 0.280300 3.857000 152 151 148
-0.748394 -0.907761 2.545000 185 186 183
-0.256944 -1.345752 2.702000 182 181 173
-0.045737 -1.448470 2.763000 180 176 169
1.123915 -1.425022 2.907000 187 188 180
-1.936348 -1.398143 2.667000 111 134 163
0.074016 -0.067461 0.389000 121 141 180
-0.497996 -0.909383 2.667000 183 183 184
-2.798800 0.781229 3.695000 126 135 121
-3.272591 1.960840 4.412000 116 121 96
-0.628688 -1.355260 2.750000 179 177 171
1.558039 -1.152170 2.483000 184 185 177
-1.303584 -0.652346 2.644000 138 159 195
-0.952093 -1.041807 2.297000 131 152 193
0.638336 -1.239017 2.813000 149 145 145
-1.279791 0.584279 3.932000 154 152 153
-0.379298 -1.109804 2.879000 180 178 178
2.673143 -0.445131 3.932000 119 127 120
-0.780741 -0.627256 2.655000 192 192 186
-2.172859 0.699307 4.062000 126 129 114
2.024629 -1.292605 2.555000 181 181 175
0.167696 0.099856 0.201000 2 17 9
0.070770 0.138263 0.348000 4 12 5
-0.273328 -1.635133 2.655000 171 171 152
-3.565094 2.301758 4.946000 116 116 90
-1.488614 -0.555568 2.678000 126 151 189
-0.107701 0.158188 0.304000 138 143 130
-0.083470 0.152748 0.321000 91 104 110
0.926052 -1.051832 2.588000 176 174 174
-0.884076 -1.462733 2.514000 126 150 190
-2.872939 -0.230410 3.957000 120 148 183
2.775928 -0.550434 3.673000 164 165 162
-1.270800 0.918039 3.587000 140 143 123
2.362378 0.050942 4.089000 101 109 97
3.123093 -0.087642 4.062000 142 147 134
0.807841 -1.534566 2.788000 187 186 178
2.469584 -0.642735 3.763000 134 140 139
0.047659 0.072247 0.390000 37 51 59
1.121008 -0.644598 3.608000 86 108 142
-2.487309 -0.030617 3.608000 127 151 183
-2.027117 -0.539321 2.667000 111 136 174
-0.662710 -1.142309 2.866000 176 174 168
-2.519659 -0.871665 3.194000 110 139 172
-1.516555 0.635750 3.932000 121 124 111
2.549795 0.086510 4.259000 99 106 97
-0.006654 -0.046562 0.402000 88 115 148
-2.492285 -0.173308 3.629000 124 152 187
0.122928 -0.797978 2.514000 123 136 162
-1.772905 0.722579 3.145000 124 127 112
-0.718623 -1.487637 2.534000 140 164 198
-0.614889 -0.240818 2.853000 184 182 182
-0.815023 -0.654571 2.545000 191 191 185
-0.438830 -0.727151 2.566000 181 179 179
1.977962 -0.988132 3.333000 174 176 165
0.118497 -1.479625 2.714000 184 184 173
0.252730 -0.987027 2.632000 176 191 205
0.146303 0.100821 0.189000 7 8 0
-2.456351 0.097314 3.809000 125 135 130
0.123171 0.123845 0.238000 11 22 21
0.100054 0.118001 0.297000 46 64 81
1.913173 -0.075017 3.957000 52 63 62
0.070862 -0.012237 0.353000 97 112 152
0.141588 0.094379 0.192000 6 6 0
0.005663 0.009734 0.381000 38 41 62
-0.968602 -1.077468 2.198000 123 149 189
0.066613 -0.021905 0.360000 111 133 165
-1.718311 -1.165372 2.813000 114 139 177
-1.857350 -0.527748 2.644000 116 143 181
0.226967 -1.377917 2.826000 182 180 174
0.109297 0.133125 0.239000 29 46 53
0.962560 -0.934409 2.424000 176 177 174
0.004727 0.018957 0.386000 24 28 33
0.073176 -0.090004 0.413000 102 114 150
1.288812 -1.036945 2.503000 181 182 179
-2.081083 -0.453325 2.738000 115 143 178
0.044638 0.143277 0.281000 9 10 7
0.498942 -0.728257 2.775000 108 124 161
0.161887 0.090890 0.212000 8 16 9
2.466612 -1.023036 3.333000 169 172 157
1.727482 -1.058909 2.493000 182 184 178
-0.896436 -0.167509 3.161000 193 190 187
0.149161 0.109056 0.187000 8 8 2
0.062210 0.017898 0.346000 95 115 154
-0.110580 -1.159949 2.949000 177 174 178
0.005058 -1.391082 2.853000 182 180 174
-2.955641 2.594761 4.510000 122 124 93
0.092130 0.065721 0.215000 28 53 70
0.020941 -0.004097 0.369000 97 112 152
2.352308 -0.129315 4.035000 69 70 67
0.162160 0.064588 0.206000 64 65 62
1.416008 -0.792133 3.245000 133 138 134
-2.631126 0.091332 3.983000 126 137 141
-0.025483 0.067869 0.321000 45 45 39
-0.665184 -0.428920 2.813000 184 182 176
0.003998 0.153357 0.269000 23 28 24
2.733800 0.135821 4.412000 54 57 49
-2.793363 1.790473 4.477000 116 121 101
-0.097578 0.160614 0.315000 210 228 226
0.090031 0.128039 0.345000 21 32 36
0.071990 -0.015052 0.354000 98 112 154
0.478944 -0.788138 2.483000 84 98 127
0.119460 0.102532 0.295000 45 74 86
1.342404 -0.915320 2.493000 178 178 172
-0.943251 -1.087165 2.206000 124 153 192
0.248854 0.067458 0.304000 48 59 51
0.138901 0.054283 0.231000 40 48 41
-2.926847 0.223986 3.932000 122 151 184
0.024966 0.144538 0.275000 11 12 9
0.032607 -0.083164 0.406000 109 117 124
-1.346836 0.364816 4.009000 148 149 141
-0.631660 -1.151891 2.763000 174 174 168
0.301895 -1.621635 2.702000 175 172 150
-0.098038 0.176897 0.283000 247 255 252
-0.476009 -0.738742 2.514000 182 182 183
0.522676 -1.455464 2.907000 187 181 179
2.039522 0.078853 3.882000 98 100 94
0.021384 0.121977 0.331000 18 19 16
0.134711 0.064941 0.226000 15 26 24
-2.603239 0.481361 3.485000 126 132 132
0.061683 0.093767 0.382000 11 19 21
-2.876815 0.232731 3.906000 120 149 180
-1.297538 -1.236268 2.577000 120 140 184
-0.029568 -0.039982 0.446000 39 39 33
-0.798076 -1.382030 2.690000 151 168 187
0.035517 0.134329 0.297000 10 18 11
-0.037131 0.019657 0.380000 77 76 73
-1.765633 0.299884 3.983000 123 127 116
-0.116607 0.148166 0.322000 117 119 108
0.454223 -1.320027 2.813000 177 171 169
-2.095419 -1.213151 2.738000 109 136 167
-2.679227 1.126473 3.717000 138 139 117
-0.819204 -0.452420 2.690000 193 192 184
-1.511694 -1.200352 2.826000 119 144 187
-0.795020 -0.702745 2.503000 194 191 188
1.588538 -1.525528 2.853000 193 191 179
0.196656 -1.543573 2.714000 186 183 173
0.026023 0.156608 0.257000 12 19 10
-2.642421 0.288591 3.833000 128 134 133
0.734243 -0.930374 2.534000 127 135 142
-1.976129 0.374271 3.194000 129 134 121
-1.122124 -0.635815 2.577000 148 154 168
-0.098800 0.134688 0.339000 107 111 100
-1.666759 -1.180101 2.813000 113 137 177
-0.086012 0.160790 0.309000 189 207 204
-0.681380 -0.482734 2.702000 186 185 177
-0.841236 -1.065763 2.323000 138 164 199
0.229144 -0.847407 2.524000 163 176 195
-0.008872 0.124379 0.275000 15 21 14
-0.045756 0.153012 0.276000 66 81 87
-2.085622 -0.041273 3.717000 131 133 127
0.903050 -0.850059 3.145000 73 85 93
2.452603 -0.222943 4.009000 82 91 82
0.100950 0.071953 0.383000 42 66 100
-0.798295 -1.505384 2.599000 134 156 195
1.394396 -1.628844 2.750000 193 191 177
-0.434299 -1.240066 2.750000 180 177 174
-0.291680 -1.303797 2.763000 182 180 174
0.083346 0.007211 0.355000 95 117 156
2.818301 -1.000052 3.465000 169 173 155
1.012466 -1.456029 2.893000 189 188 180
-3.809465 2.285236 4.829000 114 118 100
1.919763 -1.710346 2.813000 195 194 177
3.105412 0.641772 3.906000 60 66 65
-0.010603 0.092130 0.304000 20 22 16
0.155227 0.088670 0.212000 3 11 4
2.997097 0.180384 3.673000 119 126 117
1.249928 -0.559095 3.545000 70 90 122
2.904896 -0.658389 3.740000 163 169 162
-2.416279 0.510752 3.629000 127 130 115
0.375291 -0.666712 2.443000 101 117 154
0.148182 0.109056 0.187000 6 8 2
-1.788618 -1.280638 2.655000 109 138 171
0.052850 0.120732 0.350000 5 9 8
0.123171 0.052189 0.238000 12 18 17
0.672873 -1.742571 2.866000 185 180 163
0.148677 0.127687 0.206000 14 21 12
2.092583 -0.655336 3.465000 123 127 127
0.032865 0.036733 0.362000 65 75 104
-1.293020 -0.326960 3.446000 147 148 145
2.824008 -0.492738 3.673000 155 160 156
0.034209 0.059687 0.388000 42 50 64
0.021430 -0.109173 0.416000 114 124 146
0.044798 0.061926 0.383000 60 74 91
-2.223867 0.613302 3.407000 126 129 114
2.131816 -0.710745 3.426000 143 148 144
-3.409670 2.818967 4.646000 138 141 107
-0.024932 -1.112296 2.866000 182 181 185
0.085530 0.161827 0.280000 8 13 9
0.667794 -1.386307 2.813000 186 183 180
-1.301811 -0.573200 2.599000 140 157 192
0.474346 -0.797839 2.493000 89 100 131
0.009954 0.148298 0.278000 7 13 6
0.003745 0.025215 0.389000 14 18 23
0.047024 -1.417243 2.690000 184 182 176
-2.316155 -0.201762 3.465000 122 153 187
0.026891 0.132358 0.305000 15 20 16
-1.215751 -0.948801 2.826000 140 162 196
2.496087 0.204019 3.280000 103 111 104
1.357847 -1.063056 2.534000 182 184 178
-0.123225 0.148656 0.309000 114 119 106
0.040402 0.072869 0.399000 55 64 68
-0.717394 -0.548557 2.678000 189 187 181
3.117964 -0.429402 4.289000 148 157 143
0.102080 -0.102715 0.430000 168 184 208
0.161887 0.087005 0.212000 12 21 7
0.078297 0.178379 0.283000 12 20 13
-1.667873 -1.467444 2.545000 109 132 161
1.148930 -1.351061 2.801000 185 184 181
-2.794839 -0.868967 3.485000 112 138 173
2.726257 -0.012457 3.833000 120 128 116
2.456213 -0.469960 3.882000 106 112 105
1.770444 -0.964840 2.555000 182 183 175
0.050479 0.158991 0.269000 19 24 20
-0.096667 0.175199 0.290000 249 255 252
0.069146 0.031759 0.349000 90 110 149
2.160775 -1.584655 2.879000 189 187 173
0.139929 0.067582 0.223000 30 32 26
-1.385467 -1.218080 2.655000 122 143 184
0.084513 -0.090646 0.421000 174 190 214
2.435245 -0.564377 3.833000 145 147 141
1.227535 -0.865970 3.333000 52 67 81
1.020687 -0.792418 3.178000 41 45 59
2.033153 -0.630021 3.426000 136 141 137
0.054156 0.153566 0.277000 17 14 11
0.256967 0.069958 0.308000 50 53 45
-0.034282 0.057329 0.333000 74 75 72
-1.182424 -1.194600 2.424000 118 144 184
-0.218311 -1.693640 2.750000 172 170 151
0.118071 0.124695 0.251000 33 52 61
0.104315 0.065247 0.223000 17 36 45
0.120218 0.125508 0.250000 26 46 51
-0.867032 -1.239798 2.160000 121 145 185
-1.922235 -0.220812 3.629000 131 133 127
-1.317968 -0.826811 2.839000 137 158 194
1.474329 -1.110737 2.599000 183 182 179
-1.763722 0.152443 3.695000 126 128 117
-1.949628 -1.388761 2.610000 109 132 161
-0.018468 0.075084 0.316000 42 41 38
-1.941810 -0.808624 2.963000 120 141 182
-0.006378 0.139486 0.236000 26 28 22
0.006257 -0.081828 0.421000 90 101 127
2.094901 -1.585720 2.801000 197 193 179
0.909178 -1.467009 2.678000 189 189 178
3.044069 0.162117 3.695000 129 137 125
-1.511278 -1.483154 2.632000 115 138 174
-0.172057 -1.536748 2.702000 179 172 154
-1.682098 -0.514375 2.577000 118 144 184
0.057833 0.080977 0.383000 23 31 45
0.095640 0.095720 0.374000 39 58 81
-2.169417 0.622397 4.116000 125 129 118
0.103493 0.068297 0.385000 53 72 108
0.123760 -0.035002 0.359000 99 112 138
0.135035 0.034807 0.252000 109 119 107
1.839662 -1.229522 2.577000 183 185 179
0.267710 -1.155015 2.788000 114 110 116
0.092429 0.106033 0.369000 34 47 66
-0.026561 0.118041 0.258000 22 27 23
-1.529849 -0.290061 3.333000 131 133 127
1.730711 -0.051636 3.763000 35 50 64
2.561568 -0.598204 3.857000 133 140 136
-0.817230 -0.990968 2.377000 158 170 185
1.302817 -0.708509 3.695000 49 58 76
-2.104311 0.218014 3.505000 128 131 123
-0.724071 -0.932668 2.577000 180 181 178
-2.050361 2.325678 3.833000 130 132 106
-0.815243 -1.587094 2.588000 129 154 192
0.770100 -1.387863 2.893000 184 182 176
-1.980539 0.420058 3.161000 119 122 109
0.215606 -1.135099 2.775000 159 157 163
-2.031498 -0.600285 2.788000 117 143 178
0.007758 0.033105 0.386000 14 23 27
-0.887695 -1.172987 2.183000 122 147 190
0.128609 0.109166 0.266000 22 43 50
0.380054 -1.086014 2.655000 86 89 92
2.539319 -0.074543 3.932000 77 82 69
-1.297131 0.932860 3.608000 139 142 122
0.102251 0.116738 0.290000 47 66 80
2.167269 -1.614628 2.726000 196 193 176
0.153343 -1.550896 2.702000 174 171 154
-2.786811 1.156809 3.629000 123 129 111
0.249163 -1.185555 2.826000 146 143 147
2.613391 -1.138916 3.446000 171 174 159
0.173419 -1.340118 2.921000 182 181 173
0.441211 -0.693562 2.566000 106 122 159
1.564327 -0.982266 2.514000 178 179 176
2.545911 0.218833 3.245000 94 108 93
2.012804 -1.178940 2.405000 183 186 173
0.062355 0.082333 0.380000 25 33 47
2.196110 -1.014310 3.333000 172 173 158
0.039994 0.137237 0.290000 9 15 8
-1.691935 -1.396898 2.678000 114 136 168
1.317549 -0.638849 3.629000 49 59 79
-0.101376 0.048775 0.521000 185 180 175
-2.091262 -1.046199 2.714000 107 134 167
-0.120337 0.148465 0.312000 114 117 102
-1.869722 -1.301451 2.853000 113 140 171
-3.501928 1.878245 4.381000 119 128 114
-0.728344 -1.292396 2.801000 175 173 173
-0.031605 0.080180 0.307000 28 32 31
-1.345033 -0.443817 3.245000 161 159 159
0.426472 -0.988260 2.599000 92 108 125
-1.782069 -0.002321 3.673000 127 128 120
-1.817031 -1.533121 2.577000 111 134 163
0.150270 0.147695 0.251000 5 11 4
1.681818 -0.636752 3.786000 59 65 65
-1.443362 -0.041273 3.717000 158 158 158
0.241404 -1.499877 2.738000 184 184 173
-1.438484 -0.256916 3.245000 162 153 154
1.376955 -0.959772 2.473000 183 182 179
-0.104543 -1.337492 2.788000 183 181 175
-3.767731 2.242635 4.792000 118 120 96
0.109049 0.112960 0.294000 58 80 100
0.517107 -0.978777 2.610000 71 76 92
-1.580867 -1.445963 2.566000 115 135 167
1.720913 -1.490390 2.801000 191 192 179
-2.368647 0.209232 3.673000 130 132 121
0.157025 0.081295 0.216000 31 37 30
1.955543 -1.410200 2.690000 181 180 177
-2.779453 -0.070050 3.695000 120 149 182
0.062651 -0.029294 0.370000 107 122 162
0.940484 -0.879146 2.483000 168 166 166
-0.269827 -0.900560 2.621000 180 177 181
0.114761 0.024786 0.289000 61 84 113
0.021789 -0.001193 0.367000 96 110 147
-0.012628 -0.078339 0.426000 69 77 91
-0.063479 0.169708 0.291000 104 120 123
-2.859139 0.200811 3.882000 124 153 184
-1.926232 -0.721355 2.893000 117 144 182
1.783504 -1.207591 2.545000 183 183 177
1.595984 -1.556848 2.750000 193 191 179
2.387582 -0.849518 3.407000 170 171 163
-0.292314 -1.366974 2.702000 182 181 173
-1.419639 -1.405656 2.566000 117 143 178
-0.378784 -0.655778 2.524000 182 180 180
-1.676654 -0.477118 2.632000 119 145 185
0.664946 -1.204399 2.801000 145 143 144
-0.635013 -0.609376 3.178000 181 181 175
0.041394 -0.036242 0.362000 126 140 177
0.010902 0.046721 0.390000 15 24 28
-1.608981 -0.002321 3.673000 123 127 116
-1.487132 -1.533411 2.555000 106 132 167
0.083926 0.165198 0.282000 7 13 12
-1.081953 -1.145698 2.230000 122 143 184
-1.930551 0.614733 2.738000 123 130 110
0.135122 0.091770 0.195000 13 12 4
0.020146 -0.082236 0.412000 97 106 124
-2.048487 -0.390507 3.297000 122 150 185
-0.005532 0.008064 0.397000 17 20 28
0.056800 -1.392714 2.826000 183 181 175
0.611457 -1.386252 2.726000 187 185 179
0.136328 0.087622 0.196000 7 13 6
-2.106968 -1.270397 2.801000 106 133 164
-0.025796 0.117330 0.264000 18 28 23
-3.583847 2.637534 4.543000 129 130 101
-1.299589 0.645778 3.809000 132 131 123
0.290303 -1.364842 2.726000 183 182 174
3.132284 -0.368978 4.116000 163 161 147
1.339591 -1.556388 2.801000 193 191 179
0.573239 -1.415677 2.714000 187 186 178
-2.723456 0.828956 3.608000 122 131 115
1.292703 -1.440881 2.893000 187 187 176
1.544118 -1.091900 2.524000 183 183 177
-2.046361 -1.124115 2.839000 114 138 172
-2.074056 0.253265 3.485000 132 134 123
-0.955823 -1.027778 2.306000 134 156 195
-2.523543 2.573004 4.259000 126 125 103
0.119514 0.097660 0.299000 49 71 89
0.627853 -1.397420 2.866000 185 184 176
-0.749642 -0.260735 2.826000 193 188 183
0.492794 -1.397420 2.866000 178 176 170
-1.578421 -1.047497 2.853000 120 141 182
0.105312 -0.027330 0.357000 72 81 124
-1.808896 -1.462228 2.644000 110 133 162
0.030256 0.090481 0.403000 59 64 60
0.033972 0.147570 0.278000 15 16 13
-1.546832 -0.434445 3.370000 162 157 147
2.770380 -0.117220 3.983000 98 108 89
0.070973 0.032672 0.349000 88 110 149
-2.079580 -0.307512 3.333000 125 154 185
-1.980623 -1.431258 2.588000 111 133 153
0.323103 -1.482994 2.644000 182 181 173
-1.904777 -1.014453 2.763000 113 136 172
0.094906 0.149394 0.239000 27 40 38
1.299717 -0.884247 2.763000 162 162 163
0.030627 0.024142 0.358000 71 88 123
2.418617 -0.933479 3.388000 171 172 157
0.106072 0.136397 0.236000 31 44 50
-2.805733 -0.041273 3.717000 124 151 184
-1.983433 -1.158007 2.813000 112 139 172
-0.804914 -1.147530 2.473000 152 169 190
0.091054 0.153689 0.249000 12 22 17
0.459387 -0.924706 2.555000 98 113 132
3.112459 0.071874 4.062000 133 139 132
0.418402 -1.151510 2.678000 156 156 150
2.970360 -0.844901 3.786000 174 174 168
0.078815 0.151029 0.332000 7 12 8
-0.080294 0.167949 0.278000 201 217 215
1.035188 -0.880408 2.893000 63 66 74
0.114607 0.128770 0.245000 32 51 60
0.029085 0.145700 0.280000 9 10 7
2.008645 -1.656488 2.667000 195 192 175
0.083285 0.136958 0.347000 8 12 11
0.325451 -0.759349 2.453000 97 105 132
2.032861 -0.489787 3.651000 95 101 94
0.101177 -0.084326 0.417000 122 134 170
-1.458913 -1.122189 2.853000 119 145 185
-2.309503 0.590069 4.116000 124 129 116
1.023298 -1.518042 2.839000 190 190 179
-1.654678 -0.231620 3.505000 126 129 121
2.510764 -0.182133 4.035000 82 91 82
2.207281 -0.616260 3.608000 126 136 131
0.045260 0.129153 0.348000 7 12 8
0.113142 0.048791 0.246000 12 29 38
0.381687 -0.705087 2.443000 103 116 147
-3.572595 2.367415 4.868000 113 116 87
-2.503271 0.228464 3.673000 126 132 131
0.020346 0.148111 0.271000 10 11 8
0.789990 -1.172544 2.678000 178 178 178
-0.655614 -0.539729 2.935000 184 182 176
-0.677300 -0.463562 2.714000 185 183 177
0.145534 0.070129 0.220000 38 47 45
-0.212110 -1.036153 2.763000 181 178 182
-1.400410 -0.465209 3.051000 170 168 162
2.991722 -0.770806 3.763000 172 175 167
-0.031090 0.082827 0.302000 31 29 29
2.622154 -0.466933 3.857000 139 141 135
-1.684714 0.007208 3.629000 124 127 119
-0.030397 0.114898 0.268000 20 24 23
1.673855 -1.123060 2.434000 181 184 176
0.089157 0.153609 0.251000 11 17 17
0.114718 0.026117 0.287000 60 83 112
3.106658 -0.876488 3.882000 173 176 168
-2.848976 0.190648 3.882000 125 153 181
2.354581 -0.439470 3.882000 97 96 93
1.232711 -1.650917 2.775000 193 191 179
0.937745 -0.843526 2.493000 137 138 130
-0.664377 -0.750790 2.555000 188 188 189
3.432891 -0.173866 4.089000 160 164 146
-1.300487 -0.602959 2.610000 137 159 193
0.635357 -1.780088 2.866000 175 172 155
-1.465561 -1.112296 2.866000 120 145 188
-0.101915 0.151387 0.329000 108 115 106
-0.293612 -1.422782 2.714000 183 182 174
0.096779 0.127455 0.334000 30 44 54
0.621614 -1.348916 2.907000 181 180 177
-0.988717 -0.945316 2.341000 129 156 194
-1.831404 -0.421375 3.407000 129 141 156
0.071127 0.119137 0.359000 8 12 17
0.001313 0.086701 0.299000 9 15 8
0.082096 0.118585 0.366000 23 32 41
0.126276 0.116911 0.257000 20 39 46
2.719159 -0.520955 3.809000 155 160 156
0.496608 -0.992443 2.610000 73 77 91
-1.705115 -0.437661 3.082000 125 148 177
0.074204 0.155603 0.327000 9 11 5
0.075483 0.006246 0.353000 93 116 152
0.898519 -1.723567 2.775000 192 188 169
-0.403962 -1.275758 2.949000 179 177 171
-0.324773 -0.702801 2.678000 180 178 178
0.031001 -0.059794 0.399000 106 126 160
0.116678 0.120961 0.269000 49 73 86
2.355718 0.051976 4.172000 94 98 87
1.460731 -1.357705 2.726000 184 184 178
0.152129 0.138936 0.253000 8 8 2
0.017848 0.104883 0.365000 10 11 8
0.106429 0.061709 0.225000 18 31 44
-2.860921 0.169225 3.857000 125 152 185
0.938219 -0.829245 3.098000 38 47 51
1.949790 -1.358397 2.644000 183 184 176
-2.021445 0.705484 3.036000 125 130 115
-0.039088 0.147899 0.280000 33 42 40
-2.470602 0.487209 3.740000 128 131 116
0.019988 0.052576 0.388000 27 36 40
-2.915144 1.941821 4.986000 114 118 100
0.437630 -1.111869 2.667000 119 116 113
-0.028397 0.116031 0.269000 22 26 25
0.131759 0.105993 0.274000 13 30 37
-1.486125 -1.256160 2.738000 119 143 183
0.094889 0.007063 0.308000 83 104 145
1.973144 -0.146602 3.932000 62 63 60
0.048902 0.149399 0.276000 9 14 10
1.798032 -1.440508 2.655000 193 192 175
-0.013760 0.125159 0.272000 19 21 15
0.017771 0.046002 0.384000 18 24 31
-2.851902 2.167362 4.792000 115 115 96
0.090404 0.144381 0.312000 10 15 18
-0.045636 0.165849 0.271000 75 91 88
-2.079172 -0.347910 2.813000 122 145 181
-0.905303 -1.088977 2.198000 126 151 189
0.038231 0.039248 0.359000 65 79 108
0.595242 -1.520850 2.750000 186 185 177
1.046761 -0.972721 2.473000 181 179 179
2.028733 -0.111423 3.786000 105 113 106
-0.737564 -0.932668 2.577000 178 179 176
-1.722437 0.512220 3.932000 124 127 114
-0.072242 0.139614 0.316000 86 91 87
-1.571061 0.687268 3.608000 121 125 114
1.496192 -1.071865 2.555000 184 183 180
-0.034722 0.008084 0.398000 72 76 75
0.114053 0.116965 0.361000 50 72 92
-0.100409 -0.742063 2.503000 160 159 163
-0.786114 -1.084314 2.377000 153 168 189
0.491677 -1.527411 2.775000 186 185 177
0.122807 0.122196 0.254000 31 48 55
0.740402 -1.344897 2.866000 186 181 176
0.050894 0.147371 0.279000 17 18 10
0.089674 -0.002101 0.358000 79 92 137
-0.027262 0.147623 0.252000 15 23 16
-1.538357 -0.441569 2.667000 124 149 187
0.055719 0.121490 0.369000 3 9 8
-2.600912 0.973293 3.297000 132 147 153
-0.634773 -1.433557 2.655000 169 170 167
0.125560 0.107751 0.273000 28 44 56
0.078646 -0.010565 0.359000 78 89 136
-0.070578 0.167345 0.277000 221 249 250
-0.021649 0.103182 0.282000 19 21 15
1.736549 -0.690514 3.651000 93 99 92
0.068683 -0.055246 0.382000 113 133 179
0.056298 -1.739716 2.801000 174 169 152
0.029796 -0.025488 0.371000 116 128 170
1.440796 -1.275013 2.702000 184 183 180
1.522758 -0.729472 3.388000 126 128 122
-3.214792 1.698215 4.035000 117 128 114
0.393956 -1.044308 2.655000 95 107 117
2.284672 -0.013029 4.009000 103 106 98
1.215466 -0.587923 3.608000 72 91 119
-0.784270 -1.202639 2.667000 174 172 178
-2.279121 -0.310926 3.370000 119 147 182
0.089268 -0.693411 2.493000 138 152 181
1.031447 -1.404024 2.992000 184 182 182
0.592791 -0.769539 2.992000 109 125 155
0.038123 0.111223 0.367000 17 17 17
0.128072 0.118962 0.250000 7 22 23
-0.759889 -1.468312 2.655000 146 168 195
-0.861075 -0.462516 2.667000 198 195 185
-2.501243 0.744372 4.259000 124 129 114
2.081561 -0.986698 3.388000 168 173 158
-0.982704 -1.069801 2.230000 125 152 190
0.083962 0.109226 0.370000 23 36 49
0.027629 -0.088493 0.411000 57 66 77
0.087003 0.164807 0.303000 8 13 9
1.816314 -1.097752 2.463000 185 185 179
-0.560719 -0.323031 2.921000 181 179 180
0.171267 0.090664 0.204000 19 20 17
-3.396056 2.387291 4.611000 116 117 95
-0.716644 -0.886196 2.599000 187 187 187
0.067318 0.133179 0.349000 5 10 6
-0.035062 0.103548 0.283000 29 40 38
3.051926 0.581430 3.983000 56 63 54
1.543640 -1.187602 2.545000 185 185 179
-1.390864 -0.129190 3.465000 158 158 158
-1.654279 -0.422445 2.921000 124 148 180
0.110788 -0.056837 0.393000 64 80 110
1.112009 -1.506100 2.977000 189 188 180
-0.124824 0.152321 0.305000 116 118 107
-2.520813 -0.121335 3.786000 126 148 180
0.739233 -1.448854 2.750000 189 186 176
-1.330178 -1.329626 2.588000 122 142 181
-0.610438 -0.430544 2.977000 182 180 181
0.113860 0.032421 0.283000 53 73 105
-0.885486 -0.652826 2.463000 199 194 189
-2.986671 0.007520 3.786000 124 151 184
0.029189 0.145484 0.281000 7 13 6
0.130001 0.046669 0.245000 28 34 33
0.123962 0.031404 0.268000 17 31 41
0.125299 0.044526 0.251000 17 26 24
1.258927 -1.600387 2.801000 192 190 178
-2.430347 -0.002253 3.566000 129 146 174
1.573925 -0.531202 3.673000 52 63 81
0.097043 0.135866 0.251000 30 41 45
-0.017869 0.031728 0.394000 30 36 29
1.591267 -1.067890 2.396000 183 184 181
-1.462792 -0.506982 2.644000 125 149 189
-0.166668 -0.725579 2.514000 175 173 174
-1.038938 -0.962553 2.415000 130 156 196
-2.739748 0.441864 3.857000 129 136 127
-1.228600 -0.797360 2.788000 136 152 182
-0.111640 0.138073 0.343000 109 112 104
-1.640981 -0.516673 2.555000 116 145 184
-1.042615 -0.560268 2.667000 146 144 138
0.125508 0.115997 0.261000 28 46 58
-2.176599 -1.427256 2.750000 104 126 158
0.043648 -0.025076 0.365000 117 130 170
0.739919 -1.157876 2.726000 141 134 136
-0.181262 -0.830862 2.534000 175 174 178
0.131271 0.045335 0.238000 68 70 59
1.610399 -1.186300 2.514000 183 184 176
-2.122380 -0.853065 3.067000 117 141 181
0.364288 -1.299729 2.801000 169 167 161
-2.825829 2.563536 4.646000 118 122 99
-0.581025 -0.920416 2.763000 183 183 184
0.136109 0.107935 0.263000 9 20 19
0.124741 0.116690 0.258000 27 46 55
-1.549450 0.661703 3.786000 125 126 111
2.078000 -0.683837 3.426000 128 133 129
-0.164984 -1.409417 2.702000 186 182 175
-0.519444 -1.445963 2.566000 171 172 159
-1.121422 -0.059657 3.651000 165 162 159
-1.186124 -1.112000 2.555000 126 150 190
1.566745 -0.728684 3.426000 135 138 130
-2.213379 0.214975 3.608000 121 124 116
2.782035 -0.478162 3.786000 156 161 157
0.102788 0.135436 0.249000 32 46 49
-2.400094 2.048801 4.868000 111 114 99
-2.953578 1.439035 3.695000 123 141 139
-1.827516 0.768555 3.098000 125 128 113
0.039357 -0.073374 0.399000 89 105 135
-0.166668 -0.804560 2.514000 173 176 179
-2.253254 0.199616 3.673000 111 114 106
0.090076 -1.046199 2.714000 136 133 142
1.199072 -0.861873 3.351000 70 80 95
1.590654 -0.962521 2.514000 182 182 176
-2.441723 0.679952 3.833000 123 128 113
-0.123484 0.144660 0.318000 118 119 106
-3.478859 2.357705 4.577000 116 121 94
-1.724180 -0.889729 2.949000 119 143 183
-1.212329 -0.947740 2.801000 133 159 194
2.943878 -0.224388 4.035000 144 146 140
-1.336162 1.047728 3.857000 128 123 106
-1.243642 -0.849109 2.839000 140 152 188
0.131386 0.081964 0.201000 15 14 11
0.000718 -0.052211 0.405000 81 97 127
-0.039507 0.105770 0.283000 41 47 46
0.101673 0.140763 0.233000 27 39 41
1.147873 -1.507375 2.949000 190 190 179
0.077989 -0.003021 0.356000 65 76 121
0.164108 0.092000 0.212000 11 17 16
-1.743182 -0.819668 2.866000 120 144 184
2.401219 -0.982796 3.315000 173 174 159
0.076418 -0.038115 0.371000 82 98 149
2.027214 -1.012942 2.610000 182 184 173
0.095897 0.137351 0.268000 22 34 36
1.379997 -1.607245 2.750000 192 190 176
-1.480957 -0.447025 3.036000 177 176 173
-3.442911 2.669256 4.577000 127 127 101
0.003004 0.105990 0.312000 7 11 10
0.096921 0.061772 0.249000 36 63 87
0.182576 -1.170757 2.826000 168 167 171
-2.231281 -0.209677 3.446000 126 150 184
-2.004292 -1.580086 2.610000 106 131 160
0.096946 -1.255998 2.921000 177 175 169
-2.739748 0.239909 3.857000 124 141 155
0.004727 -0.017423 0.386000 86 102 139
-0.086396 -0.983244 2.678000 175 173 179
0.040822 0.041833 0.357000 63 74 105
-0.088925 0.163411 0.292000 203 220 221
-0.765480 -1.304863 2.750000 172 174 179
-1.395134 -0.197139 3.545000 148 154 154
1.892587 -1.714225 2.907000 192 193 180
1.255219 -0.928864 3.161000 104 109 112
0.021366 0.143098 0.275000 8 13 9
-1.600653 -1.294930 2.775000 114 140 175
2.865730 -0.589849 3.740000 167 167 161
-3.376916 2.386651 4.754000 116 118 92
-0.435238 -1.560724 2.545000 169 170 155
-2.237167 1.590264 4.792000 120 121 113
1.710255 -0.836317 3.426000 130 135 131
1.227535 -0.961955 3.333000 55 61 61
-2.941302 1.527869 4.754000 136 138 112
0.108854 0.107337 0.302000 61 84 100
1.267509 -1.089916 2.566000 182 182 182
-0.868326 -0.614594 2.545000 198 194 187
-2.018971 -0.977073 2.801000 112 138 173
-0.772542 -0.791438 2.473000 194 193 190
2.488805 0.314454 3.021000 110 119 117
2.083623 -1.564391 2.738000 196 193 176
0.181639 -1.649931 2.702000 172 169 147
-1.922514 -0.342416 3.333000 123 147 169
0.223685 0.050353 0.297000 59 68 67
-0.883523 -0.870418 2.405000 166 173 184
2.555664 -0.544307 3.833000 136 137 134
0.158748 0.057302 0.213000 55 59 58
0.153775 0.080535 0.217000 26 31 27
0.041564 0.054304 0.372000 56 66 88
0.024520 -0.084598 0.413000 110 122 130
-0.671885 -0.901686 2.750000 187 187 188
-0.118133 0.142775 0.331000 112 116 105
0.090742 0.106320 0.370000 28 43 62
0.088991 0.129153 0.348000 21 30 34
-1.300327 -0.947740 2.801000 128 152 192
-1.559741 0.657683 3.763000 126 127 112
1.123372 -0.918295 2.415000 178 179 176
2.798936 -0.590759 3.809000 165 166 163
-1.571020 -1.194830 2.813000 117 144 182
-1.310535 -0.997761 2.839000 129 149 193
-1.373465 -0.580478 2.632000 128 153 191
0.737467 -1.244743 2.826000 177 175 175
-1.563964 0.680841 3.388000 124 127 114
-0.205585 -1.333799 2.678000 182 181 173
-1.685369 0.657225 3.651000 127 128 115
0.980269 -1.241065 2.801000 178 178 178
0.129373 0.106644 0.272000 21 35 43
-1.858026 0.286784 3.809000 128 133 120
1.912603 0.324030 3.113000 93 100 96
-0.027479 0.122196 0.254000 17 26 25
2.275757 -0.188972 3.957000 73 78 63
-2.841860 0.297927 3.957000 129 141 151
-2.188259 0.073714 3.629000 134 135 127
-2.871019 1.330465 3.857000 138 140 116
-0.112880 0.144931 0.336000 117 120 112
-0.104720 0.152178 0.327000 118 122 111
1.043923 -1.034356 2.545000 182 182 183
-1.312179 -0.691865 2.690000 135 158 194
2.535594 -0.614552 3.833000 132 137 133
-0.012155 0.089447 0.303000 23 30 21
-2.435946 0.455019 3.717000 125 130 117
1.547419 -0.472884 3.525000 48 65 72
0.017047 0.143098 0.275000 6 12 5
-1.920332 -0.732456 2.907000 116 142 182
2.220756 -1.694507 2.775000 191 194 174
0.174565 -1.543822 2.702000 185 183 169
-2.707731 0.515074 4.035000 131 134 119
-1.365423 -0.722534 2.726000 130 150 189
-1.566865 0.713521 3.178000 123 126 113
0.550313 -1.458305 2.853000 186 181 176
0.073650 -1.265199 2.907000 180 180 174
0.149748 0.089604 0.209000 1 11 6
-2.009545 0.732847 2.893000 124 128 110
-0.636099 -1.353860 2.690000 177 176 173
-0.377586 -1.127302 2.866000 181 176 171
-0.009487 0.130988 0.253000 20 27 23
0.021437 -0.043793 0.396000 124 144 178
-0.658179 -0.705454 2.610000 186 186 186
-0.197758 -1.363231 2.667000 179 178 170
0.137273 0.095376 0.193000 7 13 6
0.169665 0.090664 0.204000 18 18 18
-1.902219 -0.415232 3.036000 123 151 186
0.055541 -0.078461 0.388000 83 102 130
-2.793363 2.669542 4.477000 125 126 104
1.241848 -1.665478 2.763000 192 190 176
0.854749 -0.834272 3.211000 67 85 110
-3.656728 2.656945 4.682000 127 127 101
-1.939450 -0.266764 3.608000 126 133 129
-2.189209 2.400915 3.957000 131 133 107
