3.563339089800503512e-01 -1.728918409684421786e-01 -1.834787736901130062e+00 1.000000000000000000e+00
3.211933171608961080e-01 -1.733220585485913401e-01 -1.844410617970079436e+00 1.000000000000000000e+00
2.853802293004728541e-01 -1.726233375135162729e-01 -1.828880477604944987e+00 1.000000000000000000e+00
2.517185018228290105e-01 -1.771078832693412375e-01 -1.846033496733674895e+00 1.000000000000000000e+00
2.129473270264430340e-01 -1.737280937158280913e-01 -1.841711507349515831e+00 1.000000000000000000e+00
1.734244221972203182e-01 -1.752380848916452460e-01 -1.844399643862212779e+00 1.000000000000000000e+00
1.374188649854619637e-01 -1.761306330111859497e-01 -1.842455135881742256e+00 1.000000000000000000e+00
1.000680440350493194e-01 -1.761675995932306116e-01 -1.831680399556266936e+00 1.000000000000000000e+00
6.188348343682881919e-02 -1.757635768640131435e-01 -1.839400967965537426e+00 1.000000000000000000e+00
2.541400259047746010e-02 -1.793827520510020146e-01 -1.855999300045857670e+00 1.000000000000000000e+00
-1.000035711598934451e-02 -1.708286203295175665e-01 -1.833481547939123546e+00 1.000000000000000000e+00
-4.762112946200589697e-02 -1.739757471142883705e-01 -1.842984916723613864e+00 1.000000000000000000e+00
-8.405411695531755933e-02 -1.769205868679598059e-01 -1.847202080733504559e+00 1.000000000000000000e+00
-1.185817518279131955e-01 -1.731421082984859749e-01 -1.840274368535020244e+00 1.000000000000000000e+00
-1.541676041979414269e-01 -1.729068879755002452e-01 -1.828535869002849923e+00 1.000000000000000000e+00
-1.894170209721024178e-01 -1.709043958131805652e-01 -1.829496813110624842e+00 1.000000000000000000e+00
-2.312377988000443585e-01 -1.745835644588011604e-01 -1.842411267575213785e+00 1.000000000000000000e+00
-2.714519902830364040e-01 -1.805453433289914422e-01 -1.860938729930013302e+00 1.000000000000000000e+00
-3.060696367821503783e-01 -1.756177383001259751e-01 -1.844448404677928810e+00 1.000000000000000000e+00
-3.438609638253073419e-01 -1.757521021058395805e-01 -1.856400714374748961e+00 1.000000000000000000e+00
-3.783387448050335999e-01 -1.754900883365373421e-01 -1.850861431065245366e+00 1.000000000000000000e+00
3.579630224973132102e-01 1.566063344611363650e-01 -1.840031960301842018e+00 1.000000000000000000e+00
3.555782306748684340e-01 1.195339717787750888e-01 -1.833152839195411721e+00 1.000000000000000000e+00
3.557348377417777763e-01 8.175928001056148586e-02 -1.834314283186565531e+00 1.000000000000000000e+00
3.533513717838301926e-01 4.523449383611363728e-02 -1.842230285127827383e+00 1.000000000000000000e+00
3.583415618765219968e-01 1.035697679434153737e-02 -1.830198357389292374e+00 1.000000000000000000e+00
3.586321739767226457e-01 -2.746928645567120464e-02 -1.841983725771858760e+00 1.000000000000000000e+00
3.559448869323397213e-01 -6.376185932833297598e-02 -1.838891163853092925e+00 1.000000000000000000e+00
3.581978742436418006e-01 -9.626560686592276761e-02 -1.826687126037095599e+00 1.000000000000000000e+00
3.583062215022094765e-01 -1.366779482918253630e-01 -1.832036550955875809e+00 1.000000000000000000e+00
-3.754915834977800015e-01 1.553413419221850722e-01 -1.838328245396795513e+00 1.000000000000000000e+00
-3.784811413091834220e-01 1.183453172043803237e-01 -1.842565201847149670e+00 1.000000000000000000e+00
-3.770545628883357203e-01 8.240674535666020484e-02 -1.836977679068353186e+00 1.000000000000000000e+00
-3.759567908229171085e-01 4.494732203310847912e-02 -1.836885176303061140e+00 1.000000000000000000e+00
-3.755617921206616527e-01 8.640279872453984766e-03 -1.840979373849432221e+00 1.000000000000000000e+00
-3.803660887185060235e-01 -2.818351410517934419e-02 -1.841812969360777430e+00 1.000000000000000000e+00
-3.757472860828985906e-01 -6.389058018314526521e-02 -1.841115330278149775e+00 1.000000000000000000e+00
-3.789143249217831744e-01 -1.029613765757418781e-01 -1.845985309050313106e+00 1.000000000000000000e+00
-3.786572103631238861e-01 -1.378098212893298091e-01 -1.844614818701246328e+00 1.000000000000000000e+00
3.577268198788623454e-01 1.918764051603578102e-01 -1.836378910440269907e+00 1.000000000000000000e+00
3.191797256330697885e-01 1.946088755427381189e-01 -1.829212051240809878e+00 1.000000000000000000e+00
2.833702511698926729e-01 1.924799939036378194e-01 -1.830196214559678625e+00 1.000000000000000000e+00
2.486707576904029493e-01 1.930154586583132936e-01 -1.835165974832535074e+00 1.000000000000000000e+00
2.102291744625763847e-01 1.943810851952422480e-01 -1.835601768788525323e+00 1.000000000000000000e+00
1.768571225872379027e-01 1.931081335977787861e-01 -1.831368338851946387e+00 1.000000000000000000e+00
1.397502581644526898e-01 1.929571192253383416e-01 -1.833092564259615864e+00 1.000000000000000000e+00
1.011093455894483684e-01 1.943151292691554788e-01 -1.830164361600606915e+00 1.000000000000000000e+00
6.465398520173756824e-02 1.934899659476991551e-01 -1.830720116254766605e+00 1.000000000000000000e+00
2.907755569881825125e-02 1.948548609080942295e-01 -1.821932330505455333e+00 1.000000000000000000e+00
-7.711237477236104060e-03 1.909776264869333662e-01 -1.826381108800938291e+00 1.000000000000000000e+00
-4.561578553263838376e-02 1.939529225466522233e-01 -1.826793043479345124e+00 1.000000000000000000e+00
-8.381116899202738224e-02 1.913916672214098780e-01 -1.834603358903673653e+00 1.000000000000000000e+00
-1.199925691364259334e-01 1.934957700755688681e-01 -1.829381452509860395e+00 1.000000000000000000e+00
-1.544325162594522571e-01 1.933736236091165017e-01 -1.830888672217993340e+00 1.000000000000000000e+00
-1.912125386240546010e-01 1.924812257284662376e-01 -1.827618341339934505e+00 1.000000000000000000e+00
-2.321909560108929016e-01 1.949457888806712391e-01 -1.838299337521863031e+00 1.000000000000000000e+00
-2.646428863349126748e-01 1.940117051127223102e-01 -1.830580642230418498e+00 1.000000000000000000e+00
-3.003722182467324364e-01 1.925739018990258733e-01 -1.824492837392684974e+00 1.000000000000000000e+00
-3.392650947290824504e-01 1.941716520055393191e-01 -1.842323298631189488e+00 1.000000000000000000e+00
-3.720778927926515767e-01 1.919574901173159709e-01 -1.820259248163662358e+00 1.000000000000000000e+00
3.587582819950873581e-01 -1.721488031878121439e-01 -2.216184423245204815e+00 1.000000000000000000e+00
3.220907614748093617e-01 -1.701217785339134148e-01 -2.208843018969105731e+00 1.000000000000000000e+00
2.849319512856808290e-01 -1.724555932109410050e-01 -2.211659711453139998e+00 1.000000000000000000e+00
2.497669154384149215e-01 -1.780674509656413607e-01 -2.224662076298597579e+00 1.000000000000000000e+00
2.113039042980214555e-01 -1.694015747604572519e-01 -2.211102645132365652e+00 1.000000000000000000e+00
1.706133352410991733e-01 -1.734372927227195438e-01 -2.220376565818536818e+00 1.000000000000000000e+00
1.361145762520838687e-01 -1.795842833243612713e-01 -2.247842548500499582e+00 1.000000000000000000e+00
1.004861457218594739e-01 -1.766865642770915346e-01 -2.217093662897804407e+00 1.000000000000000000e+00
6.081477167403772505e-02 -1.718607245179124554e-01 -2.222652707776842540e+00 1.000000000000000000e+00
2.851677355585786888e-02 -1.744249407479488145e-01 -2.215380524866387368e+00 1.000000000000000000e+00
-1.181699767297237497e-02 -1.758389036674277150e-01 -2.219807143919779069e+00 1.000000000000000000e+00
-4.927242497864459808e-02 -1.767238394780963340e-01 -2.236455958616500261e+00 1.000000000000000000e+00
-8.171595475056889213e-02 -1.718723056602189103e-01 -2.218825933237505765e+00 1.000000000000000000e+00
-1.207282600781984516e-01 -1.760150127099848194e-01 -2.224921872494811215e+00 1.000000000000000000e+00
-1.574639023835770757e-01 -1.727781450789394047e-01 -2.220656905165355521e+00 1.000000000000000000e+00
-2.038263865299168587e-01 -1.773059102008689436e-01 -2.235543818498960889e+00 1.000000000000000000e+00
-2.383086338432309215e-01 -1.758958176229385717e-01 -2.247326404148672907e+00 1.000000000000000000e+00
-2.710789733233961440e-01 -1.777927829821054628e-01 -2.230137329765681908e+00 1.000000000000000000e+00
-3.032612179133887254e-01 -1.700570425621360793e-01 -2.216759902069836752e+00 1.000000000000000000e+00
-3.429597939756346414e-01 -1.717307505445788696e-01 -2.221713191669472565e+00 1.000000000000000000e+00
-3.871751623889286842e-01 -1.726471019598211643e-01 -2.233249012988574034e+00 1.000000000000000000e+00
3.567157969427067199e-01 1.587093075568183631e-01 -2.207051305746747794e+00 1.000000000000000000e+00
3.563564934538007711e-01 1.242438708063715036e-01 -2.214084578930818115e+00 1.000000000000000000e+00
3.579682995964402759e-01 8.353631328413929635e-02 -2.220837582577554592e+00 1.000000000000000000e+00
3.563002351250798005e-01 4.793894770441584768e-02 -2.223146728980034847e+00 1.000000000000000000e+00
3.572706782650647006e-01 1.333430392658443292e-02 -2.214000343723139252e+00 1.000000000000000000e+00
3.610478928069167925e-01 -2.686930260061030917e-02 -2.219207087627175667e+00 1.000000000000000000e+00
3.579751602916300124e-01 -6.353621601230927118e-02 -2.224738168339798428e+00 1.000000000000000000e+00
3.609066193034843328e-01 -1.015614154876980646e-01 -2.217215343447036968e+00 1.000000000000000000e+00
3.579292502805504483e-01 -1.341191798630265997e-01 -2.204798549416205677e+00 1.000000000000000000e+00
-3.764785502919217319e-01 1.589526443101900166e-01 -2.204692194720366150e+00 1.000000000000000000e+00
-3.859721169025713827e-01 1.193779508297366926e-01 -2.230519859933636884e+00 1.000000000000000000e+00
-3.790588000234901833e-01 8.489356677608847490e-02 -2.212570590616509847e+00 1.000000000000000000e+00
-3.805221039790297466e-01 4.894368653674880526e-02 -2.214808601669240318e+00 1.000000000000000000e+00
-3.824385118815161744e-01 1.217702691372927505e-02 -2.224372888559535522e+00 1.000000000000000000e+00
-3.785680918576420084e-01 -2.312754144089648398e-02 -2.206471853147970119e+00 1.000000000000000000e+00
-3.827776930118595433e-01 -6.074818318578323328e-02 -2.227384238376224790e+00 1.000000000000000000e+00
-3.747263361575359775e-01 -9.911767232816452722e-02 -2.216538506988915191e+00 1.000000000000000000e+00
-3.886077930708591310e-01 -1.396459521371739010e-01 -2.239615842437648219e+00 1.000000000000000000e+00
3.568597776428225621e-01 1.930513790018766607e-01 -2.214384783017356195e+00 1.000000000000000000e+00
3.221548429061962815e-01 1.943358262519652990e-01 -2.214108332765126530e+00 1.000000000000000000e+00
2.820273351849584276e-01 1.969152898251732564e-01 -2.213253898123552332e+00 1.000000000000000000e+00
2.483862535282237716e-01 1.974681295902612210e-01 -2.199764435226279513e+00 1.000000000000000000e+00
2.064639707229211363e-01 1.983181851063686441e-01 -2.216062576076367474e+00 1.000000000000000000e+00
1.688702541922607048e-01 1.952359679052337593e-01 -2.227214248473456948e+00 1.000000000000000000e+00
1.346743983991736671e-01 1.930219851860649205e-01 -2.229169577342569486e+00 1.000000000000000000e+00
9.995263636467081880e-02 1.962286948627308680e-01 -2.215771647177423809e+00 1.000000000000000000e+00
5.904458165534851727e-02 1.933224175037717152e-01 -2.229047062803442003e+00 1.000000000000000000e+00
2.260975414121626711e-02 1.956807005850430825e-01 -2.223616280887009022e+00 1.000000000000000000e+00
-1.293133578187481876e-02 1.956604624174778373e-01 -2.205319579157522192e+00 1.000000000000000000e+00
-4.939698925734673646e-02 1.972187080598842290e-01 -2.216403797831168365e+00 1.000000000000000000e+00
-8.666540514981171950e-02 1.970232845805052480e-01 -2.223507640202695423e+00 1.000000000000000000e+00
-1.246151613367623145e-01 1.946954908934420692e-01 -2.224036316835153126e+00 1.000000000000000000e+00
-1.561518870575970830e-01 1.952577034258720645e-01 -2.207335735159919210e+00 1.000000000000000000e+00
-1.978431135178205791e-01 1.958933913739771826e-01 -2.223186705586518652e+00 1.000000000000000000e+00
-2.328815388265514652e-01 1.960663335792944550e-01 -2.221303340458978148e+00 1.000000000000000000e+00
-2.686596440850704259e-01 1.990985596576438088e-01 -2.216279661130133860e+00 1.000000000000000000e+00
-3.127364315406647721e-01 1.942771131227614412e-01 -2.230272078860564111e+00 1.000000000000000000e+00
-3.430750484698475433e-01 1.930911715962007336e-01 -2.207713744959550084e+00 1.000000000000000000e+00
-3.812395302658230234e-01 1.953711624857205897e-01 -2.216507714570050247e+00 1.000000000000000000e+00
3.590822295191935520e-01 -1.701834321858148591e-01 -1.875512940015380048e+00 1.000000000000000000e+00
3.576504497798151938e-01 -1.760754760415350340e-01 -1.878673591989614033e+00 1.000000000000000000e+00
3.584833712279193452e-01 -1.733953800803784140e-01 -1.912639412531880190e+00 1.000000000000000000e+00
3.604569969471214108e-01 -1.747816882511742664e-01 -1.953169503532483864e+00 1.000000000000000000e+00
3.619376476615465688e-01 -1.747272178535865250e-01 -1.984805425584838412e+00 1.000000000000000000e+00
3.560442264401204038e-01 -1.747141514514687632e-01 -2.035846091922798529e+00 1.000000000000000000e+00
3.581785830414725424e-01 -1.752878793656417189e-01 -2.075116997520240592e+00 1.000000000000000000e+00
3.549858022469539187e-01 -1.710617871788960576e-01 -2.102170233174772029e+00 1.000000000000000000e+00
3.578995420199926891e-01 -1.727732988207936193e-01 -2.134646232421697931e+00 1.000000000000000000e+00
3.552439664256286656e-01 -1.737097083882384874e-01 -2.177327195886995970e+00 1.000000000000000000e+00
-3.758009933286757809e-01 -1.738226437515581480e-01 -1.881613383629475944e+00 1.000000000000000000e+00
-3.783595416162882641e-01 -1.758613130646425882e-01 -1.879543887189505380e+00 1.000000000000000000e+00
-3.775437600609814481e-01 -1.737441848655324195e-01 -1.918183043074372485e+00 1.000000000000000000e+00
-3.817861119977047912e-01 -1.746489231736144954e-01 -1.963296976465155108e+00 1.000000000000000000e+00
-3.779713433730930716e-01 -1.743403248192631483e-01 -1.995497387503227804e+00 1.000000000000000000e+00
-3.818118800976047500e-01 -1.730699855617330585e-01 -2.046375191302623353e+00 1.000000000000000000e+00
-3.779364135376867551e-01 -1.735129013181170021e-01 -2.061160183308165639e+00 1.000000000000000000e+00
-3.809132404594470223e-01 -1.751146395938142641e-01 -2.119089731846442337e+00 1.000000000000000000e+00
-3.800141861373920737e-01 -1.728198356716036665e-01 -2.145997765129281643e+00 1.000000000000000000e+00
-3.797152923493445908e-01 -1.740072245118281236e-01 -2.191633167050237585e+00 1.000000000000000000e+00
3.558173354612673700e-01 1.941217394116530603e-01 -1.871021036947103866e+00 1.000000000000000000e+00
3.580422104654508164e-01 1.926945986289038126e-01 -1.875231578013867972e+00 1.000000000000000000e+00
3.590568232408662408e-01 1.948529352461688680e-01 -1.900736980630922890e+00 1.000000000000000000e+00
3.578258377716471150e-01 1.921501709350610931e-01 -1.947902798928988544e+00 1.000000000000000000e+00
3.575633343839742517e-01 1.935161876089833421e-01 -1.978789319093760657e+00 1.000000000000000000e+00
3.561926102209123091e-01 1.916937220443140077e-01 -2.021809453743270257e+00 1.000000000000000000e+00
3.558687446940586585e-01 1.959772340426552684e-01 -2.061990433564216740e+00 1.000000000000000000e+00
3.595170909474197929e-01 1.942966974331008234e-01 -2.101963125686252543e+00 1.000000000000000000e+00
3.577819341378404849e-01 1.965282527649307998e-01 -2.142435326137192675e+00 1.000000000000000000e+00
3.570451383212854268e-01 1.952082536490906406e-01 -2.169219045362155818e+00 1.000000000000000000e+00
-3.777324324405262335e-01 1.945022369797313744e-01 -1.879164552297527102e+00 1.000000000000000000e+00
-3.795386908520972380e-01 1.910650347687279926e-01 -1.879841982700722891e+00 1.000000000000000000e+00
-3.795220961614683142e-01 1.919126197328014927e-01 -1.918971744638065857e+00 1.000000000000000000e+00
-3.753151550592506713e-01 1.936146751999124338e-01 -1.944501258547105094e+00 1.000000000000000000e+00
-3.765234596275158774e-01 1.936307277539234817e-01 -1.982991288936457819e+00 1.000000000000000000e+00
-3.816499988337943017e-01 1.951633155969526856e-01 -2.037151872317235046e+00 1.000000000000000000e+00
-3.816777843838072282e-01 1.947727747828626454e-01 -2.070125845868754588e+00 1.000000000000000000e+00
-3.798730124146332821e-01 1.958769128413717642e-01 -2.104416023101396416e+00 1.000000000000000000e+00
-3.781364158835165967e-01 1.945432831390153106e-01 -2.137207399825687748e+00 1.000000000000000000e+00
-3.822172770132666875e-01 1.929504371561177323e-01 -2.182157120781011983e+00 1.000000000000000000e+00
