0.000000000000000000e+00 0.000000000000000000e+00 0.000000000000000000e+00
0.000000000000000000e+00 0.000000000000000000e+00 0.000000000000000000e+00
0.000000000000000000e+00 0.000000000000000000e+00 0.000000000000000000e+00
0.000000000000000000e+00 0.000000000000000000e+00 0.000000000000000000e+00
0.000000000000000000e+00 0.000000000000000000e+00 0.000000000000000000e+00
0.000000000000000000e+00 0.000000000000000000e+00 0.000000000000000000e+00
0.000000000000000000e+00 0.000000000000000000e+00 0.000000000000000000e+00
0.000000000000000000e+00 0.000000000000000000e+00 0.000000000000000000e+00
0.000000000000000000e+00 0.000000000000000000e+00 0.000000000000000000e+00
0.000000000000000000e+00 0.000000000000000000e+00 0.000000000000000000e+00
0.000000000000000000e+00 0.000000000000000000e+00 0.000000000000000000e+00
0.000000000000000000e+00 0.000000000000000000e+00 0.000000000000000000e+00
0.000000000000000000e+00 0.000000000000000000e+00 0.000000000000000000e+00
0.000000000000000000e+00 0.000000000000000000e+00 0.000000000000000000e+00
0.000000000000000000e+00 0.000000000000000000e+00 0.000000000000000000e+00
-1.869234005407252042e-01 -1.640626062404285102e-02 9.822374850017828729e-01
-3.051362762947008034e-01 3.532765806054270763e-02 1.973877196622647823e+00
-5.729711440245078835e-01 2.381726412375372026e-02 2.937273270135290382e+00
-8.881096607207737970e-01 3.086483669493289214e-02 3.886292788909973872e+00
-1.156537871843024368e+00 1.027025210454000914e-02 4.849372307204936838e+00
-1.466327722854511073e+00 5.033967380293580263e-02 5.799332669354345882e+00
-1.864602574761904608e+00 3.861058030867764446e-02 6.716523800310127967e+00
-2.250385834813237729e+00 -6.724456103296271026e-03 7.637998710840897765e+00
-2.733141833560848166e+00 2.539676432022307251e-02 8.513164336806463339e+00
-3.322314861635384808e+00 2.941160819724201320e-02 9.321161257603890249e+00
-3.898443746656726550e+00 1.714263160330157035e-02 1.013842803170975237e+01
-4.368036786137617256e+00 -2.435681073793414392e-03 1.102109391806982686e+01
-4.984269175652969786e+00 -3.087310729153706565e-02 1.180814471370013941e+01
-5.683196209696413703e+00 -3.854779114012957947e-02 1.252329651598484261e+01
-6.464835847906915234e+00 -5.211062134813938124e-02 1.314687932974329243e+01
-7.261684215535056275e+00 -2.459200675231155639e-02 1.375043165130215428e+01
-8.041783671424150626e+00 -1.633021716222765596e-02 1.437603262776742952e+01
-8.880180565352839395e+00 -1.961914632635851363e-02 1.492108292929535018e+01
-9.752928228738076299e+00 -2.494932117529524707e-02 1.540922543440188797e+01
-1.064779944453780480e+01 -1.947542852350999873e-02 1.585551630774835274e+01
-1.155106532989093715e+01 -1.129624612880601037e-02 1.628451961931199676e+01
-1.246213611726839332e+01 -1.590119016278948583e-02 1.669674384819460755e+01
-1.339585418817768137e+01 -3.546021716076044883e-02 1.705421833472522408e+01
-1.435714782551526270e+01 -3.099463468396184557e-02 1.732970808296900955e+01
-1.532601693305260682e+01 -3.001154747780054172e-02 1.757727966049626289e+01
-1.630024120386926967e+01 -1.733045839650960290e-02 1.780250457060048319e+01
-1.728740565744523039e+01 -8.179927028436560429e-03 1.796194926123568436e+01
-1.826923292252953601e+01 -1.386538279582210688e-02 1.815164084547121703e+01
-1.925525822438121537e+01 -1.608939458162364153e-02 1.831822163031711881e+01
-2.024649784861400192e+01 -1.058608041158309171e-02 1.845018268852743049e+01
-2.123766553179025607e+01 -1.668877099996605301e-02 1.858265676521641652e+01
-2.222970129003255835e+01 -2.001163124846613156e-02 1.870856948486136417e+01
-2.322124357044276621e+01 -4.344234013015647877e-02 1.883622099499823577e+01
-2.421256665875371183e+01 -4.217070932573747932e-02 1.896766268373032460e+01
-2.520620532596056051e+01 -4.353639779908530932e-02 1.908026967252936146e+01
-2.619989390446092514e+01 -4.288722229182698881e-02 1.919244180600769667e+01
-2.719126328528142267e+01 -3.893485570733822010e-02 1.932348046278485754e+01
-2.817894085062167164e+01 -4.148027625793645340e-02 1.947996224369808260e+01
-2.917286774844820485e+01 -4.469481665777269574e-02 1.958995764590627786e+01
-3.016356410520446474e+01 -3.867568606316402341e-02 1.972591535542196794e+01
-3.115439065651753481e+01 -2.926452223079149123e-02 1.986072698403153325e+01
-3.214250546964201050e+01 -3.058870367462860479e-03 2.001219440592284116e+01
-3.313632340022174105e+01 3.102524369437096967e-03 2.012304546849381737e+01
-3.412878141945765265e+01 1.075323900797200624e-02 2.024539148036114966e+01
-3.511799548304512797e+01 2.610805175798154576e-02 2.039106153948847933e+01
-3.610909365396628345e+01 3.456634617570861906e-02 2.052392565372661082e+01
-3.710025920529792387e+01 4.060947271058035213e-02 2.065641841003853685e+01
-3.808632177709642974e+01 3.528325512019941934e-02 2.082270802457984260e+01
-3.907351106203005742e+01 4.771081225866898035e-02 2.098177678812503899e+01
-4.006084678703057023e+01 6.418994306844862108e-02 2.113956336672242742e+01
-4.105160843746654820e+01 7.005070387777995178e-02 2.127505138651791938e+01
-4.203088888876832385e+01 7.385911147571318225e-02 2.147752433219156032e+01
-4.301900614845505544e+01 6.038207432318670048e-02 2.163063426191126837e+01
-4.400927057142795462e+01 5.165793714939180548e-02 2.176955964485014761e+01
-4.500583216955588028e+01 2.750827668963140571e-02 2.184881729455279498e+01
-4.599764768358019751e+01 2.872981179776596533e-02 2.197649068251073601e+01
-4.698479679394809239e+01 2.566469078860311379e-02 2.213626314238122461e+01
-4.797235083051510429e+01 3.712513502669168713e-02 2.229312512973974592e+01
-4.896310454268360957e+01 4.295330685708110413e-02 2.242867259093852539e+01
-4.995383777115912949e+01 5.093594079544076086e-02 2.256426000757400629e+01
-5.094401590898188203e+01 5.350342155287671209e-02 2.270404793058746762e+01
-5.193617529405315025e+01 5.768932694443896364e-02 2.282895682863343367e+01
-5.292843897272204856e+01 7.205897252023543698e-02 2.295227067733051740e+01
-5.391752674143475588e+01 7.119225828478784046e-02 2.309959560593851080e+01
-5.489635392995216989e+01 4.580302568766266014e-02 2.330270326676701131e+01
-5.589456796475558065e+01 5.577871837059750204e-02 2.336160340494165411e+01
-5.688820890240894101e+01 5.350752358455381635e-02 2.347417573144154446e+01
-5.787682382879608411e+01 5.362915264669630699e-02 2.362464337756825117e+01
-5.886915266767294952e+01 6.470467125997728108e-02 2.374777261219890789e+01
-5.986149493661321941e+01 6.529287265208522095e-02 2.387128971746613004e+01
-6.085051262733408350e+01 7.761994311988167083e-02 2.401857193219300513e+01
-6.184794964372954240e+01 1.061473920060483495e-01 2.408418887348232573e+01
-6.283900373337220202e+01 9.138202582056263734e-02 2.421683040304213463e+01
-6.381656191474739614e+01 7.570163407283664325e-02 2.442691164290199168e+01
-6.480153301184658687e+01 8.441307468196501684e-02 2.459941105936976058e+01
-6.578114630748099501e+01 8.804691687013098400e-02 2.480027067752941505e+01
-6.677331753612958209e+01 9.167372883536896444e-02 2.492510296212326892e+01
-6.776073605379599485e+01 7.069445958281030118e-02 2.508183375434699514e+01
-6.875020856096837463e+01 5.830413210048072947e-02 2.522602334251093126e+01
-6.972339729212333737e+01 3.682624155796355297e-02 2.545502638565844933e+01
-7.071422407319325032e+01 1.787343223983306473e-02 2.558882878075504408e+01
-7.170366223294826113e+01 -5.610293263077666126e-03 2.573186948355368386e+01
-7.269361533433826139e+01 -9.409216196739050159e-05 2.587315794229580135e+01
-7.368541623220772863e+01 3.597911198173003259e-03 2.600089731796559178e+01
-7.467793244120973384e+01 -1.305071723763250903e-02 2.612187003406094732e+01
-7.567166673950340794e+01 -2.424991557493279964e-02 2.623307579987983118e+01
-7.666233720392851581e+01 -3.274000022928709452e-02 2.636909031887793731e+01
-7.765763915058730049e+01 -3.663556502639944007e-02 2.646583151771351794e+01
-7.864487875312666176e+01 -4.943917613671835326e-02 2.662455780640087966e+01
-7.963773983609775087e+01 -5.113738461387196121e-02 2.674382215987427358e+01
-8.062473771365326058e+01 -5.035106799769577257e-02 2.690455352397940914e+01
-8.161897192729952621e+01 -4.189112501390429566e-02 2.701144953784294245e+01
-8.261133744141808677e+01 -5.131211157188837746e-02 2.713442080034149129e+01
-8.360414862196945762e+01 -3.258620359305666736e-02 2.725263797397785481e+01
-8.459185588626186814e+01 -5.170719475637703538e-02 2.740777903160260820e+01
-8.558186570903458801e+01 -5.206067476897906915e-02 2.754877699564959670e+01
-8.657206801384562311e+01 -5.229515464634793692e-02 2.768841703491523276e+01
-8.756707451116513141e+01 -5.262607314711183898e-02 2.778822665762222499e+01
-8.855897397587487774e+01 -6.358203833675814265e-02 2.791477869725528649e+01
-8.955018520359089962e+01 -7.884289054852698653e-02 2.804618420870543716e+01
-9.054079175344639907e+01 -7.615365141974717034e-02 2.818290081843620243e+01
-9.152430754911098632e+01 -6.999799022843770924e-02 2.836361824292412592e+01
-9.250890220556921406e+01 -6.568620050126948440e-02 2.853841747330933387e+01
-9.349224216730991088e+01 -6.667072533397011558e-02 2.872019082216623431e+01
-9.446832706051061734e+01 -8.441991245100040342e-02 2.893685472691744920e+01
-9.544829092980984342e+01 -1.253248679103556584e-01 2.913178445653032256e+01
-9.641986781905173132e+01 -1.753889918995297226e-01 2.936315414292042192e+01
-9.739813058827053283e+01 -1.533006514280736421e-01 2.956934352086112838e+01
-9.834105683775216278e+01 -1.576790490085892005e-01 2.990231636911324387e+01
-9.929451539616172795e+01 -1.410695561611022553e-01 3.020338264444626120e+01
-1.002440263103516571e+02 -1.727652195306453309e-01 3.051551147803547082e+01
-1.011629313388858407e+02 -2.066818615904345013e-01 3.090852955640589883e+01
-1.020198957210034081e+02 -2.263428020149022557e-01 3.142353003718573845e+01
-1.028502033097105510e+02 -2.196130534816221336e-01 3.198079480246342499e+01
-1.035920219687445041e+02 -2.127990051437356755e-01 3.265136071708652565e+01
-1.043628640683695181e+02 -2.019165662584129217e-01 3.328829401812330246e+01
-1.050737191170262719e+02 -1.860951190464616989e-01 3.399145458414454879e+01
-1.057468101920983514e+02 -1.863110079444840195e-01 3.473101415446346607e+01
-1.064572953733977414e+02 -1.725047065812488623e-01 3.543459086897058796e+01
-1.070468273405962805e+02 -1.548355139182172602e-01 3.624214263776417511e+01
-1.075775087241780028e+02 -1.392290833224214541e-01 3.708957033877697995e+01
-1.080843439685417167e+02 -2.001460094902135500e-01 3.794945821703613831e+01
-1.085871829780216160e+02 -1.821227356856979784e-01 3.881365037862211409e+01
-1.090118868708735675e+02 -1.730392787278997868e-01 3.971893712557365319e+01
-1.094032890774578561e+02 -1.356528723661165614e-01 4.063839705906738686e+01
-1.096791758862366493e+02 -1.517634005739499636e-01 4.159945216655223987e+01
-1.099344846799744317e+02 -1.341084305086771566e-01 4.256615052792054144e+01
-1.101505014586212496e+02 -1.234859828426650430e-01 4.354248239514021179e+01
-1.102564046436844194e+02 -1.594204757547733053e-01 4.453620933329406739e+01
-1.104081665855407977e+02 -1.847603386324765395e-01 4.552430153767245002e+01
-1.105568438556014286e+02 -1.868216421279329242e-01 4.651318516095439293e+01
-1.106388077225913804e+02 -2.043228919010097733e-01 4.750966678685847455e+01
-1.106944661486724897e+02 -2.349594312556874398e-01 4.850764651714489162e+01
-1.107647168343512192e+02 -2.373638651764413410e-01 4.950517298790102672e+01
-1.107610459818960038e+02 -2.308162303041835228e-01 5.050514481416406909e+01
-1.107529566655918245e+02 -2.367836376403175125e-01 5.150509428939340495e+01
-1.107622389674762644e+02 -2.399207619417489390e-01 5.250504628690271147e+01
-1.107651504152234025e+02 -2.519345603037743686e-01 5.350496988004417886e+01
-1.106481835280533232e+02 -2.570652985763736131e-01 5.449809244188160307e+01
-1.105995554031221815e+02 -2.659464654168298692e-01 5.549686990975983036e+01
-1.105332395643039263e+02 -2.793550918319919196e-01 5.649457849359556150e+01
-1.104690149889801773e+02 -2.892693738059638475e-01 5.749246471503437306e+01
-1.103959663763376113e+02 -2.959288320758545199e-01 5.848977086251695567e+01
-1.103140865072800381e+02 -2.976144587323236168e-01 5.948641164319266750e+01
-1.102147621097574017e+02 -3.053177003650969779e-01 6.048143693137640042e+01
